-0.09914993 -0.04701560 -0.42679945
-0.09582210 -0.03270448 -0.40957263
-0.10920651 0.02259775 -0.43836206
-0.12369137 0.03246995 -0.43032029
-0.22366282 0.00509884 -0.36843270
-0.17297909 0.01811928 -0.33244532
-0.14717023 -0.02053522 -0.36052570
-0.09731621 -0.02943530 -0.39742580
-0.14900596 -0.03254737 -0.40156767
-0.15566549 0.01654367 -0.47554436
-0.13958688 -0.04114787 -0.40598139
-0.11448459 -0.02707988 -0.46438673
-0.10962172 0.01045717 -0.41517875
-0.15117754 -0.01762451 -0.39357099
-0.10145685 -0.01686535 -0.46440765
-0.17545180 -0.02702936 -0.42328912
-0.08648933 0.03240386 -0.45020133
-0.14146695 0.03077830 -0.46344766
-0.18024109 0.04070166 -0.41546273
-0.10287596 -0.03088003 -0.40820748
-0.14920153 0.01740164 -0.47912687
-0.11581638 0.03415158 -0.45314646
-0.09680226 -0.00443748 -0.46096241
-0.07682055 -0.01091867 -0.44255438
-0.12376943 -0.04642988 -0.46616927
-0.16898657 0.01042946 -0.46629497
-0.16954146 -0.00895145 -0.44808578
-0.07799980 0.04783587 -0.42533264
-0.13953708 -0.04489409 -0.47018027
-0.22695953 -0.00618134 -0.38693789
-0.07467180 -0.00794583 -0.45238939
-0.09395074 0.03613915 -0.42084876
-0.09958138 -0.03434275 -0.43357748
-0.22263911 0.01389869 -0.38807106
-0.13117331 -0.01274193 -0.37504768
-0.14797366 0.03041120 -0.46566415
-0.09987940 0.04350303 -0.45111233
-0.16887653 -0.01098602 -0.35121065
-0.17630911 0.00679272 -0.45331118
-0.21014771 0.04438602 -0.38069826
-0.10677889 0.04483347 -0.44809783
-0.12634604 -0.04044330 -0.41626582
-0.19549082 0.05558690 -0.37717190
-0.15508270 0.04427069 -0.41908044
-0.06822632 -0.00487022 -0.41396970
-0.11008739 -0.02518135 -0.39303118
-0.11495730 0.00260087 -0.36665094
-0.15166895 0.00268744 -0.33600476
-0.18509269 -0.03915165 -0.39090139
-0.18035382 -0.02707911 -0.43115470
-0.13297670 0.02339280 -0.48610696
-0.15680505 -0.03508424 -0.44436961
-0.20850712 0.00917555 -0.35591891
-0.18665284 0.04590979 -0.37547690
-0.17448267 -0.03269063 -0.43098655
-0.17826924 0.03453278 -0.44032142
-0.11003294 0.00373807 -0.42017597
-0.13855070 0.03491694 -0.42357886
-0.12080041 0.01979610 -0.35762617
-0.13791002 -0.03286002 -0.39006317
-0.10734026 -0.04550118 -0.43651423
-0.14494482 0.01652399 -0.48450643
-0.20827430 0.01034238 -0.36674443
-0.10162932 0.03727972 -0.45486683
-0.11863625 -0.04562814 -0.41773230
-0.12709698 0.01984600 -0.34865433
-0.16398692 0.01480209 -0.32992128
-0.11049765 0.04056648 -0.41526285
-0.15876323 0.04127596 -0.37796214
-0.12254542 0.04027884 -0.46995831
-0.12883994 0.04574461 -0.38264841
-0.14509335 -0.00972733 -0.47972760
-0.17897926 0.00854795 -0.34469455
-0.17171180 0.05280591 -0.38902646
-0.11547491 -0.01076306 -0.36233324
-0.15693578 -0.03132287 -0.40100321
-0.15046282 0.00212507 -0.48069426
-0.14424063 0.01776292 -0.45097461
-0.22831896 0.01963553 -0.40524325
-0.14585023 0.04918492 -0.41268849
-0.11784883 -0.03250063 -0.44701263
-0.17263699 0.03349750 -0.39724404
-0.14101532 0.03512406 -0.43724573
-0.22591209 0.01403605 -0.37841398
-0.15220919 0.03190598 -0.40843520
-0.16421835 0.02813802 -0.37884966
-0.12693858 0.02284178 -0.41873246
-0.15135382 0.01224744 -0.46995085
-0.09299880 0.02461921 -0.45829380
-0.11806099 0.02897730 -0.46750090
-0.18163943 0.05689104 -0.37127334
-0.17429267 0.03766347 -0.44424045
-0.14400089 0.04971495 -0.38596308
-0.15178788 0.03845622 -0.40660161
-0.09236841 0.01742661 -0.38602284
-0.12997936 -0.02493272 -0.38454324
-0.14843264 0.04658501 -0.43385825
-0.16525452 0.00640684 -0.46013677
-0.09665851 0.04373816 -0.44044176
-0.09951804 -0.02612916 -0.43561378
-0.19299388 0.04593055 -0.36100289
-0.10822234 -0.03422949 -0.47268191
-0.10033254 0.02998848 -0.41506615
-0.11287460 -0.03327313 -0.42321169
-0.16264643 0.00650430 -0.47223160
-0.09659339 0.01427356 -0.37252137
-0.19620882 0.03685640 -0.35383934
-0.15749110 0.04576641 -0.40012136
-0.16851991 -0.00084055 -0.46040109
-0.15096667 -0.00979027 -0.34826028
-0.07671410 0.03514384 -0.42653987
-0.09463605 -0.01248006 -0.46332937
-0.17582420 -0.01397895 -0.35695153
-0.12126228 0.04409276 -0.44222957
-0.14226508 0.02953734 -0.39303753
-0.19248505 0.03488522 -0.36042172
-0.12886719 0.05032877 -0.37712112
-0.14672078 -0.02961226 -0.46320871
-0.16439211 -0.01967278 -0.36254895
-0.12294841 0.01508767 -0.35402265
-0.21716230 0.02095426 -0.36805704
-0.11178807 0.03363211 -0.40830779
-0.19072981 0.04044941 -0.37564287
-0.14195471 -0.04378844 -0.43120614
-0.20136747 0.05266393 -0.40153572
-0.15201277 0.00060606 -0.47658092
-0.12286627 0.02908626 -0.48109925
-0.18531039 0.04127585 -0.34594384
-0.13429111 -0.03020611 -0.43313953
-0.10397184 -0.01342347 -0.38418290
-0.19447479 0.03141746 -0.36526769
-0.08868055 0.01506713 -0.45200559
-0.16698976 -0.03588730 -0.42238006
-0.17200315 0.05818919 -0.38196057
-0.09838685 -0.00765837 -0.38561097
-0.18096766 0.00704035 -0.33444422
-0.09315712 -0.02777585 -0.42187613
-0.10575408 0.00371423 -0.48106611
-0.14389993 -0.03502548 -0.42035422
-0.15538484 0.00625755 -0.45466229
-0.10914527 -0.00294039 -0.48536912
-0.15526642 0.00966318 -0.37988678
-0.20391354 0.02676493 -0.41767180
-0.19781025 0.02632855 -0.41535103
-0.14740235 -0.00030791 -0.48338604
-0.21035875 0.04282563 -0.39781362
-0.20366913 0.01991526 -0.35407871
-0.18529554 0.05811871 -0.35876650
-0.11447151 0.04171353 -0.40222624
-0.12950027 0.03338108 -0.46959648
-0.12952648 -0.00647121 -0.42495444
-0.07981873 0.02970522 -0.43960658
-0.18683711 -0.02513695 -0.42531461
-0.08475418 -0.01092412 -0.45517448
-0.17840467 0.03698652 -0.33561349
-0.16253844 -0.00677928 -0.35554260
-0.22346982 0.01753383 -0.39111629
-0.07043406 0.03012466 -0.42384762
-0.21914434 0.01723516 -0.40025213
-0.19718912 0.01902852 -0.42471725
-0.14110306 -0.03775208 -0.40907338
-0.15976262 0.01204858 -0.46629399
-0.11815664 -0.00540510 -0.36571842
-0.17765135 0.02974888 -0.44483232
-0.09601775 -0.02022783 -0.45816222
-0.22487780 0.02260606 -0.41536152
-0.14681783 0.03627105 -0.44491792
-0.14730655 -0.02410145 -0.46762067
-0.17040195 0.03101528 -0.42679700
-0.12227066 0.01353085 -0.42078349
-0.19235285 0.05307697 -0.40426943
-0.18727440 0.01055436 -0.34725460
-0.13158303 -0.02693163 -0.40979552
-0.20741358 0.01486003 -0.41814551
-0.11221077 0.03613891 -0.38173142
-0.10573284 -0.02599759 -0.38532844
-0.13718301 -0.01720982 -0.49087796
-0.14670500 0.03820172 -0.40793055
-0.13210972 0.03014449 -0.41948172
-0.08841571 0.00789300 -0.45188433
-0.18933654 0.05372120 -0.40824741
-0.17298089 0.05501971 -0.34103268
-0.12462986 0.02026331 -0.44469097
-0.11852404 -0.01882935 -0.39149222
-0.18177387 -0.01868012 -0.36936381
-0.18281205 -0.02094280 -0.42555892
-0.10219058 -0.03123543 -0.46117938
-0.08151716 0.02739468 -0.41229743
-0.11608814 -0.04030295 -0.47179645
-0.13297287 -0.03026277 -0.49107641
-0.17678933 0.03886184 -0.42275813
-0.20386723 0.01355355 -0.35347846
-0.10713539 0.02214527 -0.37562642
-0.13099660 -0.01483686 -0.36853829
-0.12926033 -0.00701431 -0.35857049
-0.20933706 0.04840705 -0.38604826
-0.14278147 -0.00371295 -0.49137911
-0.14242476 -0.02537571 -0.37150073
-0.16525126 -0.02599458 -0.39600992
-0.16601865 0.01891614 -0.45319146
-0.19978163 0.02318941 -0.34366694
-0.13051528 -0.03631450 -0.41331789
-0.12968196 0.03792919 -0.47049710
-0.15537682 0.01937880 -0.39282662
-0.19009063 0.02708715 -0.33885735
-0.10647041 -0.00491187 -0.37205562
-0.21579719 0.03697240 -0.38569534
-0.11732763 0.00290155 -0.43010023
-0.15744247 0.03353697 -0.37783062
-0.10229246 0.01732584 -0.46907923
-0.17925972 0.04141692 -0.40169638
-0.14620340 -0.03907523 -0.45601922
-0.15349393 0.02403318 -0.38015464
-0.13856113 0.04987248 -0.42030451
-0.12534261 -0.03244539 -0.39635795
-0.11618457 -0.05446849 -0.41646472
-0.09574068 0.00311671 -0.45467278
-0.12168932 -0.00236988 -0.42903084
-0.17646602 0.05538585 -0.36726540
-0.10795441 -0.03645201 -0.42699546
-0.17413089 0.03126542 -0.44141573
-0.22040352 0.02368408 -0.40101388
-0.14764738 0.06180890 -0.36681551
-0.09317010 0.04799522 -0.43906325
-0.18254545 -0.01028096 -0.35145143
-0.23004892 -0.00241145 -0.39082929
-0.18199277 0.03179967 -0.33610252
-0.22878894 0.00858061 -0.40491551
-0.16507214 -0.03020414 -0.37960607
-0.21543865 -0.01965846 -0.38170594
-0.19825199 -0.03316254 -0.38135636
-0.08846749 -0.02610530 -0.43478355
-0.10901129 0.04694926 -0.43133169
-0.17523143 0.01764824 -0.45702004
-0.10310132 0.03980539 -0.43860894
-0.14383414 -0.02631406 -0.39666295
-0.09860201 0.04160403 -0.42628184
-0.17968327 0.04227488 -0.34287673
-0.20377880 0.00895559 -0.42486641
-0.10735087 -0.04667533 -0.43217957
-0.09820195 0.00464483 -0.37928459
-0.10945670 -0.05275552 -0.42085072
-0.15556213 0.01846511 -0.38204426
-0.09874910 -0.01119780 -0.46623123
-0.15720023 0.04202971 -0.40469831
-0.07818370 -0.00648203 -0.40239441
-0.17192170 0.00098216 -0.45711771
-0.21598198 0.03195833 -0.36969072
-0.19498560 0.00959637 -0.34160644
-0.15067883 0.02712966 -0.40094408
-0.11055449 -0.01379394 -0.37396270
-0.11165675 -0.05009212 -0.41663554
-0.10052094 -0.02088831 -0.39570415
-0.09741135 0.01970050 -0.40607029
-0.17954163 0.02482590 -0.45225537
-0.16686001 -0.00617655 -0.46726069
-0.20312738 0.05694063 -0.39433321
-0.11349382 -0.00607213 -0.37087828
-0.17363581 0.06507014 -0.36717400
-0.09186578 0.00101414 -0.45798305
-0.21429682 0.03586525 -0.38109642
-0.08672823 0.04388698 -0.43118948
-0.10436235 -0.02538486 -0.45128193
-0.09701154 -0.01225831 -0.47464204
-0.11405072 0.03852426 -0.45366091
-0.15543416 0.05038002 -0.42477763
-0.12588860 0.02735067 -0.35666806
-0.17373836 0.05021460 -0.34243867
-0.08349981 -0.00703787 -0.45134017
-0.16492788 0.02386124 -0.44898158
-0.20175900 -0.01170224 -0.37829387
-0.18908311 0.00855804 -0.33989105
-0.12320117 0.02117991 -0.44056055
-0.09991243 -0.00395516 -0.47239992
-0.08741982 -0.00227799 -0.39570948
-0.21400076 0.03489737 -0.39887848
-0.12262826 -0.01887568 -0.41967544
-0.17235067 0.03758721 -0.38158357
-0.18836343 -0.01583601 -0.35284376
-0.16768792 0.03143342 -0.44582996
-0.08384706 -0.00273249 -0.40134841
-0.18526056 0.03950218 -0.43497658
-0.10853302 0.01901991 -0.41510648
-0.11356426 0.02942740 -0.46824324
-0.19675361 -0.02163142 -0.38462126
-0.13043809 -0.04295091 -0.40754291
-0.20524216 0.02186541 -0.41573554
-0.17470583 0.04154142 -0.42944849
-0.17359851 0.00618752 -0.33588809
-0.16615227 0.05202844 -0.38323614
-0.16585100 0.03537979 -0.37870419
-0.11234034 -0.04276715 -0.45197728
-0.18566285 0.05349994 -0.35738215
-0.13610289 0.04635339 -0.38121203
-0.12118504 -0.03010299 -0.40060878
-0.11517753 -0.03993249 -0.40651062
-0.15210333 -0.04296104 -0.46274471
-0.18752569 0.05899658 -0.38061291
-0.21654505 0.00294677 -0.40687287
-0.09618233 -0.02316792 -0.43787241
-0.17819543 0.05722246 -0.38571230
-0.23538500 -0.00229619 -0.40251291
-0.14865361 -0.04126603 -0.43875259
-0.13848627 0.03631036 -0.37082535
-0.20880453 0.00337109 -0.41606984
-0.15969433 0.01314135 -0.39666289
-0.15859184 -0.02922546 -0.38371792
-0.21490535 0.02152021 -0.41116345
-0.16363896 0.00836243 -0.38714221
-0.13887440 0.03214044 -0.45842937
-0.12149428 0.00740184 -0.35781503
-0.10446873 -0.00648338 -0.47556090
-0.21417499 -0.00804378 -0.39183220
-0.19832942 -0.02614227 -0.39238036
-0.13784204 -0.01313685 -0.37909475
-0.11391658 -0.03120079 -0.39600009
-0.12993965 0.02687705 -0.34849817
-0.16845341 -0.01459091 -0.36626720
-0.12537126 -0.02614179 -0.38453165
-0.12602027 -0.04522528 -0.44063127
-0.09232554 0.03933049 -0.45504859
-0.21215853 0.04587626 -0.38931906
-0.14511986 0.02337359 -0.39761406
-0.22745031 -0.00101872 -0.39445493
-0.17121950 -0.02638732 -0.38512564
-0.15474442 -0.01977684 -0.46103588
-0.13161181 0.01133445 -0.41990328
-0.10014026 -0.02854458 -0.47947803
-0.10825284 -0.02198378 -0.46163809
-0.15845583 0.02059719 -0.47139761
-0.16594216 0.03952099 -0.41743872
-0.13716406 0.04049509 -0.43158641
-0.18606874 0.02701816 -0.42588580
-0.17001185 0.00651711 -0.33087292
-0.15459020 0.00423629 -0.46918654
-0.12252241 -0.03240630 -0.42336294
-0.09329189 -0.04506361 -0.42438799
-0.15438825 0.05824089 -0.34624833
-0.13139744 0.04160240 -0.43430668
-0.12016407 -0.03093809 -0.45584020
-0.19705302 0.03299388 -0.42139360
-0.19249834 0.03947666 -0.42326966
-0.15039615 -0.02328132 -0.37152830
-0.13125896 0.05281302 -0.39302650
-0.10966551 0.02085263 -0.47906330
-0.12595646 0.01416125 -0.48710644
-0.09141403 -0.00547824 -0.45510411
-0.11861378 -0.03332139 -0.44028789
-0.10754743 -0.04687865 -0.41992915
-0.15693830 -0.03732648 -0.43935311
-0.15619494 0.02625542 -0.40456462
-0.08224674 0.00492027 -0.40165672
-0.12085806 0.04326755 -0.43118748
-0.09822574 -0.03306618 -0.40147996
-0.11471699 -0.01866390 -0.36977088
-0.18893276 0.04588570 -0.38283068
-0.19905952 -0.02336782 -0.38844210
-0.17844136 0.02745599 -0.33096564
-0.12783274 0.04801241 -0.44664443
-0.09661783 0.00196431 -0.46893373
-0.17121501 0.02557907 -0.46217537
-0.20451263 0.01082036 -0.36343107
-0.17084463 0.04381599 -0.43037480
-0.16085333 -0.02776554 -0.45564377
-0.13664292 0.02128164 -0.47248521
-0.18169014 -0.01104208 -0.43135071
-0.14619768 -0.04834531 -0.45689839
-0.10144760 0.01969533 -0.38971418
-0.14811966 -0.00438260 -0.48592666
-0.10293420 -0.05572603 -0.42369410
-0.16636962 -0.03585494 -0.43110624
-0.12385415 0.02455486 -0.44987720
-0.10773642 -0.02904747 -0.43841824
-0.11459067 -0.03477091 -0.43637466
-0.09597382 0.03227333 -0.42133942
-0.14917806 0.04499300 -0.42265624
-0.12138194 -0.02975154 -0.39149901
-0.15611097 -0.03109805 -0.40650451
-0.19970475 0.05029304 -0.40523219
-0.17094588 0.02898676 -0.38790804
-0.13740838 0.02505925 -0.34092638
-0.14070220 0.04559984 -0.38358286
-0.22818345 0.00945261 -0.39204675
-0.17683573 -0.02965567 -0.38384265
-0.09525780 0.03119694 -0.43072423
-0.18776964 0.04215247 -0.40744272
-0.14960663 0.04510890 -0.38862956
-0.12244383 0.00503475 -0.42200553
-0.21869124 0.00672382 -0.40061268
-0.13302355 0.02138593 -0.41905776
-0.11849763 0.03725868 -0.45058107
-0.11433076 0.01918735 -0.44218150
-0.15566055 0.05544364 -0.34239447
-0.15264836 0.02241649 -0.45289752
-0.16410710 0.04926559 -0.40768287
-0.17767523 0.01892475 -0.44512653
-0.10830857 -0.00541363 -0.48126924
-0.10428569 0.00917487 -0.36851329
-0.06672687 -0.00445934 -0.44250104
-0.06975709 0.00936095 -0.44384223
-0.15335760 0.02870571 -0.46740872
-0.21323632 0.01058105 -0.36106089
-0.12129863 0.03037424 -0.36726806
-0.10898835 -0.03111987 -0.44863850
-0.12867229 -0.00099877 -0.35103139
-0.22209671 -0.01754966 -0.38341141
-0.13307506 0.04941567 -0.44484371
-0.14535433 0.01807746 -0.47402620
-0.12380176 -0.02183273 -0.38466358
-0.18843880 0.04481861 -0.34447432
-0.14637262 -0.04358262 -0.46650544
-0.08377333 0.03717104 -0.42254749
-0.16949219 0.01828090 -0.44917113
-0.20940724 0.01522418 -0.35288733
-0.18004201 0.05052930 -0.39440823
-0.16790144 0.06448381 -0.36825359
-0.20343712 -0.03337676 -0.38183486
-0.16789290 0.02710050 -0.39924163
-0.10596050 0.02864872 -0.46012062
-0.20029908 0.03175315 -0.41257533
-0.16595542 -0.03420746 -0.39065561
-0.14560781 0.03536437 -0.38816154
-0.07445890 0.01436906 -0.44880658
-0.15437850 -0.01344883 -0.37482002
-0.07802664 0.00524247 -0.45361018
-0.14616190 0.04863310 -0.39740095
-0.14755982 -0.01800900 -0.35468915
-0.11493950 0.03192252 -0.42981380
-0.18107165 0.05019945 -0.36578986
-0.14181542 -0.03305924 -0.47474006
-0.19448784 0.00908308 -0.42635778
-0.18153934 0.03875136 -0.40991190
-0.15770358 0.04857929 -0.41161355
-0.11118986 -0.04346329 -0.42949927
-0.12600441 -0.00365716 -0.42969725
-0.11614267 0.01632811 -0.43713495
-0.16865604 0.01695376 -0.38623899
-0.13878447 0.05462392 -0.40276569
-0.16207816 -0.00105770 -0.45961207
-0.17511250 0.05345099 -0.35003367
-0.10278367 -0.01664671 -0.47453338
-0.18490314 0.01296053 -0.42810100
-0.16444297 -0.02129222 -0.44430369
-0.13098010 -0.05134489 -0.45661843
-0.10276141 0.04301321 -0.46430817
-0.11699715 0.00451264 -0.36332840
-0.19193232 0.04291610 -0.35515279
-0.15030296 -0.01845614 -0.46504605
-0.20784350 0.04702900 -0.39861399
-0.07931705 0.01057546 -0.44980556
-0.10117204 -0.03920464 -0.45138878
-0.14911956 0.01741994 -0.40035421
-0.16443208 0.05949466 -0.37619904
-0.13554701 -0.03917911 -0.41577938
-0.16940221 0.04542434 -0.38012964
-0.17474766 0.06904048 -0.37462670
-0.10247917 0.04361958 -0.45827350
-0.11479950 0.03120704 -0.44291043
-0.20031205 -0.01848065 -0.38175973
-0.12066877 0.01926973 -0.48411191
-0.12018143 0.04636019 -0.43664822
-0.14961328 -0.03963755 -0.45259631
-0.19224221 0.03371920 -0.34618986
-0.12512362 -0.01237066 -0.42165983
-0.13493875 -0.01660964 -0.38859230
-0.21074775 0.03728145 -0.37478432
-0.10162459 0.01258701 -0.45814633
-0.16111733 0.03925466 -0.40550169
-0.14883538 0.03703455 -0.45647755
-0.19783247 0.01863310 -0.41593644
-0.12851030 0.02719620 -0.43794459
-0.13705830 -0.02809311 -0.39202759
-0.18685025 0.00516620 -0.44143403
-0.12047015 0.01741949 -0.47920966
-0.11579107 -0.04966203 -0.41782859
-0.14434984 0.05152707 -0.35093042
-0.23233587 -0.00203693 -0.38641083
-0.16772954 0.02739884 -0.38198242
-0.13739553 0.02262043 -0.48461360
-0.11423713 -0.02711213 -0.41927403
-0.12316960 -0.05180522 -0.42270303
-0.12599829 -0.03408988 -0.45611751
-0.10942706 0.02778444 -0.43552884
-0.18984890 0.00174535 -0.34215271
-0.11956282 0.03611755 -0.45782387
-0.13850451 -0.03115280 -0.43308753
-0.13389213 0.04389100 -0.42420152
-0.22542518 0.02419251 -0.40571412
-0.13654986 -0.03642159 -0.44827545
-0.18790910 0.00698268 -0.35332322
-0.12456996 -0.03001191 -0.43361259
-0.14631075 -0.04661460 -0.43997070
-0.20070425 0.03615221 -0.36147863
-0.19559345 -0.00772071 -0.35056597
-0.14477807 -0.01493747 -0.36200333
-0.13459569 -0.04401604 -0.40876797
-0.16348290 0.06107871 -0.39255944
-0.12694232 -0.01501111 -0.48955393
-0.18962401 0.00219113 -0.36434960
-0.14985804 0.05643828 -0.37601334
-0.16530561 0.04610935 -0.40355384
-0.11542568 0.00719451 -0.41530597
-0.12724501 -0.03417999 -0.41036093
-0.14636800 -0.01382980 -0.38471407
-0.15462469 0.03535049 -0.40935314
-0.10223246 -0.02925078 -0.44452345
-0.14996803 0.00472335 -0.48555911
-0.09870448 -0.03644682 -0.44881371
-0.07160882 -0.00450825 -0.44915536
-0.13316916 0.02599353 -0.45102301
-0.18345337 0.01736015 -0.42616895
-0.20747195 -0.00368624 -0.37546346
-0.14017199 0.04220415 -0.34841973
-0.18814954 -0.00518855 -0.42898601
-0.12452050 -0.04595391 -0.42570230
-0.09411585 -0.00699790 -0.47528642
-0.07291531 0.02405980 -0.41389224
-0.13622269 0.05229684 -0.39590153
-0.15949988 0.05615694 -0.38150778
-0.15405452 0.02332959 -0.39389515
-0.13275404 -0.04365387 -0.46729043
-0.18396036 -0.01050011 -0.37110022
-0.09038813 0.02406393 -0.40795127
-0.18771920 0.03843078 -0.32182348
-0.09001514 -0.02235690 -0.45513949
-0.18066669 0.04158130 -0.42926362
-0.13817576 -0.01787710 -0.39544660
-0.11726186 0.02319377 -0.42756420
-0.17428559 -0.00277784 -0.45578083
-0.18212891 0.01064568 -0.34885931
-0.07212475 -0.00815094 -0.45583326
-0.12902437 -0.03216003 -0.40551078
-0.11325180 0.01036478 -0.42485929
-0.06521744 0.01907790 -0.41568586
-0.12530749 -0.01871475 -0.38750196
-0.18636803 0.04536469 -0.32875657
-0.07746844 -0.02514334 -0.40496829
-0.08893543 0.03797634 -0.45254219
-0.17668973 -0.00440345 -0.35307875
-0.13604027 -0.01075624 -0.35996750
-0.14679699 -0.03681405 -0.40079254
-0.11352647 0.03096562 -0.45584524
-0.09345454 0.02865911 -0.45534703
-0.13541195 -0.01680627 -0.37358141
-0.13267943 -0.03109055 -0.38635871
-0.09414738 0.00590245 -0.46225169
-0.18914998 0.04877444 -0.35062218
-0.10207042 0.02360465 -0.42463118
-0.06466588 0.00919480 -0.43927062
-0.09941386 -0.03089599 -0.41142961
-0.19624574 0.01444451 -0.43234083
-0.10270659 -0.02080273 -0.45838201
-0.22496156 0.01620919 -0.38261682
-0.06539748 0.00606093 -0.44453931
-0.09232115 -0.03518505 -0.40384790
-0.13997155 -0.03921830 -0.41310105
-0.12316187 -0.02578289 -0.39743042
-0.15638508 -0.00594637 -0.46218267
-0.22220621 -0.00363419 -0.37376255
-0.14065206 -0.00884510 -0.35536170
-0.12926488 0.02285195 -0.48814613
-0.13809977 0.03827702 -0.44003811
-0.12554485 0.03021278 -0.47080970
-0.17449534 0.00998414 -0.32907593
-0.10690683 -0.03659912 -0.40385300
-0.12484613 -0.02997812 -0.38632748
-0.08329710 -0.02121919 -0.44085461
-0.15308565 0.00574166 -0.38507479
-0.18807608 0.03880949 -0.41454482
-0.16357255 0.06948060 -0.35770968
-0.11964384 0.02630140 -0.41415232
-0.08508220 -0.01968412 -0.44969028
-0.16989599 0.03128585 -0.38444772
-0.18904613 -0.02733343 -0.37515166
-0.18434598 -0.01934941 -0.43145862
-0.08661072 -0.02502231 -0.44846871
-0.10179688 -0.00043394 -0.46917629
-0.12161645 0.01956995 -0.41760495
-0.20345095 -0.01740201 -0.36700478
-0.14046305 -0.01014216 -0.48852140
-0.12098718 -0.01632001 -0.48906884
-0.15357165 0.00050386 -0.45152310
-0.13453674 -0.01350188 -0.49335101
-0.13150130 -0.03478914 -0.43599567
-0.11718972 -0.01181432 -0.42613184
-0.08148170 -0.03231298 -0.44889528
-0.09599120 0.02479418 -0.40789419
-0.12188067 -0.04008348 -0.42077878
-0.10781559 0.00226352 -0.37488359
-0.14720404 0.05550921 -0.39515132
-0.18341681 0.01445181 -0.34660321
-0.08634763 0.01101811 -0.39714953
-0.15199085 -0.02545655 -0.40379089
-0.18245468 -0.02303970 -0.37413526
-0.21832940 -0.00531115 -0.36797670
-0.13278735 0.03665833 -0.42837748
-0.19907506 -0.02799351 -0.37394935
-0.12369253 -0.03926859 -0.44456509
-0.12084446 0.00340383 -0.43459332
-0.12927724 0.00138466 -0.43200171
-0.17199014 -0.02892821 -0.42490712
-0.10608865 0.02149400 -0.47643539
-0.19099483 0.04679791 -0.35704106
-0.18835884 0.04330703 -0.36228400
-0.21854460 0.00191025 -0.38145396
-0.11485915 -0.00918924 -0.48804766
-0.10485391 0.02220838 -0.39698607
-0.18370926 -0.03326888 -0.38224375
-0.23075289 0.00130788 -0.38247672
-0.19391935 0.03340643 -0.42929605
-0.15598176 0.00749207 -0.33395338
-0.13536233 -0.04708792 -0.45808682
-0.11394712 0.03073653 -0.46123093
-0.12715144 0.04159237 -0.37670386
-0.13457769 0.03209818 -0.46963459
-0.16763021 -0.02514619 -0.37756696
-0.21563622 0.00478645 -0.37195578
-0.16749719 0.01045301 -0.45125443
-0.16408737 0.05167796 -0.41566247
-0.12991898 0.03768605 -0.43926176
-0.14257282 -0.01669438 -0.35314277
-0.13883707 0.04441641 -0.45246622
-0.09856030 0.04243562 -0.41337043
-0.16951330 0.00146716 -0.33898073
-0.13465816 -0.00931978 -0.36470774
-0.06096321 0.00132077 -0.41552085
-0.20653465 0.02726356 -0.35860789
-0.13809392 0.02899054 -0.47781914
-0.15701114 0.06756669 -0.35456321
-0.13698350 -0.04776746 -0.44607806
-0.16238451 -0.02688667 -0.37645823
-0.13366836 0.03982918 -0.43755829
-0.14138669 0.05285989 -0.38704833
-0.14670315 0.00923893 -0.33227575
-0.14931127 -0.01614912 -0.47013107
-0.21823323 0.02016320 -0.37665987
-0.11498345 0.00844654 -0.43788242
-0.16737679 0.06278688 -0.37279749
-0.14255136 0.03359723 -0.40483621
-0.18635230 0.00967465 -0.36039191
-0.21068110 -0.00445468 -0.38292131
-0.19809477 0.02863477 -0.35968602
-0.11905628 -0.03778737 -0.44826761
-0.19381520 -0.00055494 -0.37135619
-0.14316025 0.01600621 -0.46994251
-0.15224978 0.05320501 -0.39582816
-0.19793928 -0.00416884 -0.35622063
-0.11825044 0.02078700 -0.43302631
-0.18509814 -0.00811016 -0.43213794
-0.12460060 -0.00195291 -0.41347876
-0.21484026 -0.00627638 -0.37227833
-0.17787555 -0.02478855 -0.42591956
-0.14157066 0.03752033 -0.39659613
-0.18703261 0.05168541 -0.36213830
-0.14427233 0.00846615 -0.46154106
-0.10492121 0.01931971 -0.36492705
-0.11236931 -0.01541994 -0.48814026
-0.13600294 -0.02338301 -0.37878346
-0.14919402 -0.02357632 -0.39901614
-0.19784449 0.04272326 -0.36170959
-0.16186756 0.00678216 -0.46577463
-0.17474315 -0.03502974 -0.42676342
-0.15771233 -0.03516241 -0.45843610
-0.19037449 0.05572630 -0.37059185
-0.12044342 0.02759049 -0.43479499
-0.10708223 0.01481498 -0.42081755
-0.10892449 -0.02768557 -0.46665904
-0.13098234 0.00806621 -0.43391541
-0.15623978 0.04361915 -0.38211513
-0.16635635 -0.01255023 -0.37534019
-0.09569919 -0.00549976 -0.46793932
-0.19660488 0.05045934 -0.39405993
-0.21234667 0.02663183 -0.41625184
-0.10356571 -0.02853971 -0.45825493
-0.17238784 0.05514736 -0.40648723
-0.14451829 -0.04195172 -0.43912163
-0.12659848 -0.03460757 -0.42902449
-0.18591008 0.03610875 -0.43737769
-0.09561825 -0.04400066 -0.42915872
-0.16665936 0.01902334 -0.46419901
-0.11997379 0.03445906 -0.42434424
-0.10675745 0.01785668 -0.42970678
-0.19256215 -0.02636965 -0.38226128
-0.17653023 -0.03309000 -0.43547449
-0.10433489 0.04091276 -0.42296112
-0.16313809 -0.02691193 -0.44483978
-0.12126752 0.00741908 -0.48644429
-0.20641851 0.03165544 -0.36106688
-0.08226408 0.03468590 -0.43578988
-0.13502264 -0.03738686 -0.42188096
-0.17073181 0.02437923 -0.38783816
-0.18058881 -0.02900022 -0.37798622
-0.17817570 0.05906884 -0.35235292
-0.16546367 0.02896643 -0.45744470
-0.15383860 -0.03560230 -0.39726084
-0.20375119 0.02161518 -0.42473361
-0.13109183 0.04283903 -0.44241530
-0.14615150 0.04400624 -0.41288298
-0.12554064 0.03161340 -0.36210752
-0.14679807 0.04812268 -0.39001173
-0.10753544 0.02553035 -0.47930065
-0.20395724 0.01210552 -0.34174198
-0.19127588 0.01961256 -0.41977102
-0.11906831 0.03911968 -0.41298026
-0.14147916 0.03138738 -0.39671820
-0.20455272 0.04827995 -0.37450007
-0.14519568 0.02563586 -0.40114257
-0.19942573 0.03801818 -0.37391827
-0.15015289 0.01314052 -0.38176635
-0.16276547 0.06198977 -0.38094366
-0.19365650 0.04323825 -0.38215998
-0.21725009 -0.00542273 -0.38157058
-0.17954907 0.04559099 -0.33715692
-0.09995102 -0.03104973 -0.46971551
-0.14865245 0.01816300 -0.45335510
-0.16129267 0.04858415 -0.33448556
-0.09929615 -0.01681824 -0.38835087
-0.18084945 0.02718906 -0.42127833
-0.14361241 0.05263296 -0.38298535
-0.11234631 -0.00882860 -0.36497825
-0.09347196 0.01196884 -0.38961381
-0.11246800 0.04241202 -0.42971826
-0.12433401 0.02440880 -0.35398531
-0.10493844 0.02066660 -0.42273849
-0.16200915 0.03323339 -0.40075809
-0.15628581 0.03470481 -0.39934528
-0.18258980 0.02742337 -0.44538701
-0.11627953 0.02823162 -0.47823504
-0.12744272 -0.03536253 -0.44714403
-0.15636949 -0.01928506 -0.36536512
-0.18358953 -0.00298022 -0.35345969
-0.16318168 0.05193029 -0.39299700
-0.09015287 0.03102504 -0.41474783
-0.07399203 0.00570440 -0.44712570
-0.15148139 -0.00922906 -0.36674976
-0.15729479 0.04661380 -0.39383128
-0.17576663 0.03573664 -0.33198139
-0.15983191 0.04035139 -0.41081718
-0.15120320 0.04639337 -0.41416842
-0.11140777 -0.01294477 -0.37795544
-0.21684644 0.00923060 -0.40476343
-0.11513649 0.00398796 -0.43483096
-0.12112956 -0.03448908 -0.41356033
-0.16113219 -0.00957181 -0.36722243
-0.12813707 -0.02446293 -0.48788267
-0.16855551 0.00928668 -0.45712906
-0.14026691 -0.02022191 -0.48165315
-0.15319644 0.01585482 -0.46421084
-0.10728468 0.01718658 -0.37058979
-0.18008462 0.05233698 -0.39007816
-0.10167231 -0.03989143 -0.42570919
-0.09246586 -0.01635438 -0.46808073
-0.11980654 -0.03203245 -0.46047112
-0.14885063 -0.01246543 -0.47254205
-0.15541355 0.03068171 -0.45143789
-0.20731612 0.04342841 -0.38658381
-0.11211726 -0.03025794 -0.40868992
-0.23029537 -0.00020649 -0.37753320
-0.13773470 0.01379124 -0.46449342
-0.12658289 -0.01441409 -0.35873005
-0.13572009 0.01635401 -0.48832491
-0.18832166 0.01070924 -0.42033830
-0.13433447 0.02151240 -0.42533234
-0.19429812 0.00414364 -0.36814639
-0.12477098 0.03919419 -0.41608769
-0.12399486 0.04070793 -0.45246327
-0.21500175 -0.00547764 -0.36476576
-0.09878880 -0.02919810 -0.44059491
-0.09772113 0.01247417 -0.38487965
-0.18887705 -0.00782893 -0.35960573
-0.14721765 -0.03778693 -0.40918258
-0.21138525 0.04165004 -0.39316428
-0.12763423 0.05186867 -0.37193322
-0.18170822 0.03250995 -0.41538244
-0.15142293 0.04163922 -0.40026373
-0.13431351 0.05512341 -0.36841917
-0.16743973 0.03323876 -0.39437717
-0.15177566 0.00953557 -0.47306165
-0.18995351 0.03024557 -0.35643831
-0.12123966 -0.03259784 -0.41910723
-0.17736793 -0.00343314 -0.34648740
-0.17638175 0.05888443 -0.38160187
-0.11740954 0.02443855 -0.43941280
-0.14414693 -0.02464112 -0.39288521
-0.22149253 -0.00244241 -0.39369076
-0.15303724 0.01852433 -0.45153424
-0.19450620 -0.02311830 -0.37005618
-0.15022220 0.02903077 -0.39457148
-0.07827178 0.00114088 -0.45947242
-0.15591538 0.00382695 -0.48078048
-0.21540627 0.01839847 -0.35947067
-0.17562270 -0.01483728 -0.36492586
-0.16266006 0.03594663 -0.38167784
-0.18019769 0.03900355 -0.33996400
-0.13194233 0.03893549 -0.36638182
-0.14271519 -0.04133655 -0.43507379
-0.12766549 0.01868947 -0.41785040
-0.11642195 0.02401288 -0.36442849
-0.11054580 -0.03363714 -0.44253427
-0.12585467 0.01067833 -0.43133369
-0.13633257 0.01985773 -0.34055364
-0.11308791 0.04651408 -0.43394601
-0.14463782 0.02043993 -0.33325469
-0.11202195 -0.02587167 -0.37996316
-0.16429637 0.06679609 -0.36323535
-0.09464344 -0.03881676 -0.41810444
-0.22160612 0.02634386 -0.40589827
-0.07747395 0.03417537 -0.44063371
-0.19323245 0.04136003 -0.37015840
-0.11424018 -0.02087509 -0.48709896
-0.13042943 -0.00532129 -0.49056679
-0.10204859 0.01496422 -0.37284037
-0.14126199 0.02615944 -0.47962105
-0.12840238 0.01709891 -0.48880899
-0.15149903 -0.01429517 -0.34878483
-0.10009389 -0.00590103 -0.47960919
-0.18555462 0.04514668 -0.35024717
-0.13260822 -0.00902194 -0.49278194
-0.09067904 -0.04343659 -0.43748820
-0.16902183 0.02228921 -0.39859608
-0.15600398 0.03440737 -0.32772526
-0.19081278 0.04411127 -0.41035262
-0.09882405 0.01543503 -0.45917448
-0.18549770 0.03995635 -0.42870322
-0.22911212 -0.00242601 -0.38187250
-0.08537004 0.03325855 -0.43224519
-0.18859261 -0.01995273 -0.37665904
-0.17519496 0.01053697 -0.33507901
-0.16637272 0.06334370 -0.38259980
-0.14156733 0.04271601 -0.37795818
-0.13083227 0.01341580 -0.34462205
-0.09888170 0.03835833 -0.43252212
-0.08339181 0.00927891 -0.45387810
-0.07486995 0.03243957 -0.43187848
-0.14274034 -0.01161987 -0.34576797
-0.15759128 -0.01636744 -0.46620649
-0.12612778 -0.01817466 -0.37275863
-0.17502864 0.03863220 -0.41663745
-0.14144638 -0.01848715 -0.35864121
-0.15690100 0.00343004 -0.38884920
-0.14793588 -0.03391487 -0.45444262
-0.15391001 -0.02705734 -0.39753774
-0.20482144 -0.00775862 -0.37779126
-0.15045017 -0.01747537 -0.35181004
-0.09339228 0.01369236 -0.37937853
-0.11221048 0.01818817 -0.43699294
-0.10868157 0.04204221 -0.42554519
-0.15461026 0.05796843 -0.38317910
-0.08788812 -0.02625086 -0.46952015
-0.17087042 -0.00447779 -0.34625238
-0.08276532 0.00641246 -0.46056640
-0.16272503 -0.01643597 -0.36654621
-0.15292002 0.00410899 -0.45714843
-0.11104928 0.03526309 -0.45169953
-0.12865204 0.04003637 -0.46288034
-0.18006283 0.00461920 -0.33896855
-0.18578376 0.02590791 -0.41618404
-0.21232715 0.04458553 -0.40176877
-0.21701074 0.00064776 -0.39995912
-0.10060880 0.01263760 -0.46230245
-0.16886185 0.04848136 -0.40848324
-0.20914595 0.02130084 -0.41859323
-0.17209594 0.06037731 -0.35223597
-0.12075289 0.01689078 -0.42961091
-0.17613699 -0.02552929 -0.37242609
-0.15992858 -0.03410589 -0.38602367
-0.21071175 0.00662732 -0.37138802
-0.12310346 -0.03808259 -0.42503768
-0.17162579 0.03850194 -0.41069478
-0.14777952 0.02502595 -0.47801375
-0.13663618 -0.03183295 -0.38233337
-0.16792285 0.01303381 -0.39115271
-0.14500391 0.00355516 -0.47989094
-0.22556078 -0.01716836 -0.39157748
-0.18295038 0.04839418 -0.34987739
-0.16072209 -0.00434457 -0.33850697
-0.16693322 -0.01646331 -0.35748756
-0.21990284 0.01610308 -0.36371011
-0.14171098 0.02470352 -0.47130397
-0.12634996 0.04316102 -0.45766252
-0.22721562 0.01796336 -0.39381960
-0.18115306 0.05355292 -0.35673940
-0.10250831 0.02968720 -0.46206400
-0.16039237 0.04219041 -0.41642457
-0.16307527 -0.03350094 -0.45326206
-0.20458820 0.00577752 -0.35473213
-0.15272455 -0.00354168 -0.34126103
-0.07532301 0.00443521 -0.40377966
-0.09189907 0.02055164 -0.39872646
-0.15438996 0.05703187 -0.39274368
-0.18686886 -0.01830553 -0.42575660
-0.19589788 0.03458405 -0.41501623
-0.08769833 -0.03254643 -0.45160252
-0.09478761 0.01099947 -0.46603221
-0.13202621 0.02289350 -0.43485025
-0.13709694 -0.01168059 -0.37512377
-0.11231737 0.03119614 -0.44966242
-0.12487436 -0.02527542 -0.41378543
-0.18011484 0.04265673 -0.31907600
-0.10885826 -0.00715573 -0.37517154
-0.13894151 -0.04117134 -0.42650938
-0.10669938 0.04441835 -0.45664829
-0.15606447 0.04249504 -0.41114822
-0.16871233 0.03610970 -0.44235569
-0.10723339 -0.03961525 -0.40718958
-0.11852725 -0.01174043 -0.41087329
-0.14477928 -0.03540342 -0.43939787
-0.07161963 -0.01024234 -0.41215786
-0.19272950 0.05251011 -0.36296391
-0.18850388 0.03752585 -0.36281288
-0.12167439 -0.01638070 -0.37758303
-0.11384490 -0.00448528 -0.48725373
-0.13620639 -0.00305454 -0.34806541
-0.07749280 -0.02564524 -0.45442697
-0.21338551 -0.01945152 -0.37648666
-0.18567406 -0.02420907 -0.36991739
-0.10493005 0.01856769 -0.45786679
-0.16003825 -0.02741361 -0.36988014
-0.08669488 -0.02563558 -0.40326899
-0.15825404 0.00030941 -0.38531071
-0.09245978 -0.02848888 -0.46874401
-0.09097210 -0.00985249 -0.45705059
-0.15080008 0.06027219 -0.36183986
-0.15420052 -0.02969223 -0.45167729
-0.17693067 -0.02559789 -0.38211489
-0.20946623 -0.02774519 -0.38358310
-0.21498218 0.01472193 -0.37458551
-0.19578415 0.04088939 -0.35420871
-0.13841829 -0.02548677 -0.47971573
-0.10229958 -0.02724294 -0.41348410
-0.14579700 -0.03458593 -0.43519226
-0.19001323 0.01730005 -0.33947539
-0.11530780 -0.01924335 -0.49081126
-0.11861726 -0.04111068 -0.40974927
-0.16446087 -0.00909436 -0.34876153
-0.11309192 0.00144293 -0.42909119
-0.13795596 0.02005893 -0.44490057
-0.10717870 -0.02714449 -0.39809629
-0.17503056 -0.01680884 -0.43383503
-0.21591583 -0.00163464 -0.38973597
-0.17540291 0.02724106 -0.44770440
-0.17060329 0.04879297 -0.40394524
-0.13562077 0.01727173 -0.47691858
-0.16355491 0.04822877 -0.37862319
-0.19008237 0.01515414 -0.42154628
-0.10626142 -0.04646223 -0.41609567
-0.16333312 -0.00055286 -0.47189713
-0.16310632 0.01590433 -0.47371000
-0.09813309 0.01747348 -0.39048389
-0.11623045 -0.04410461 -0.44196132
-0.19843838 -0.02457227 -0.37158382
-0.16547073 0.03851795 -0.38446620
-0.20403217 0.01707600 -0.42394832
-0.08162254 0.03110924 -0.44694045
-0.09294100 -0.01722739 -0.39280254
-0.12868932 0.01223703 -0.34786385
-0.14831750 0.00141654 -0.47325170
-0.16240959 -0.00440380 -0.47428262
-0.10088898 -0.02960448 -0.47430050
-0.11856381 -0.02992996 -0.42625207
-0.08011062 0.04041161 -0.43538249
-0.12688020 0.02443928 -0.42895150
-0.07724201 -0.00540258 -0.45422840
-0.20779312 0.02879511 -0.41387638
-0.16029364 -0.03134464 -0.40618423
-0.12237310 -0.02502448 -0.37196791
-0.12927352 0.05533852 -0.39550132
-0.11313497 0.04183387 -0.41243339
-0.12358357 -0.01747736 -0.49303839
-0.12336037 -0.00860421 -0.36541307
-0.19734988 0.04842848 -0.40918404
-0.16551594 0.02255177 -0.32888728
-0.16980356 0.00360706 -0.46647814
-0.10014202 -0.03148074 -0.45608896
-0.16132568 0.00335333 -0.38538584
-0.15781435 0.04384995 -0.38806361
-0.18356162 0.01838387 -0.33503807
-0.15384537 -0.03735255 -0.42038605
-0.13681649 0.02418417 -0.44998085
-0.14015628 -0.01571508 -0.48225927
-0.11217979 0.04208938 -0.47198057
-0.12013614 0.02149869 -0.43733689
-0.18688521 0.04837574 -0.37106407
-0.22340888 0.02343321 -0.39058283
-0.08470917 0.04923339 -0.42553002
-0.12934133 -0.03138857 -0.47789451
-0.13576768 0.03649017 -0.36191490
-0.08162618 0.01129047 -0.40328047
-0.11845370 0.04417625 -0.45467067
-0.14513007 -0.02453079 -0.47112617
-0.12962601 0.04944325 -0.36867890
-0.14351948 -0.02886422 -0.41369924
-0.15840603 0.06422994 -0.35204914
-0.14418949 0.04250101 -0.40643144
-0.11575221 0.02680501 -0.41852728
-0.14607999 -0.00428497 -0.34242764
-0.11252037 0.01285870 -0.36851430
-0.18141082 0.01951677 -0.45047271
-0.16278107 0.03940038 -0.40182275
-0.20761064 0.05283424 -0.39313179
-0.20389353 0.04185177 -0.41239598
-0.10288528 0.02923706 -0.43831360
-0.15288892 -0.01683511 -0.35552692
-0.19943938 0.05496440 -0.38172466
-0.21713862 0.02669617 -0.41633606
-0.09455864 -0.02200500 -0.40010691
-0.16382584 0.03364804 -0.39075509
-0.14562577 0.05178126 -0.41644615
-0.19129115 0.00012646 -0.34664738
-0.11650939 -0.01526002 -0.41864926
-0.19984764 -0.03861311 -0.38795877
-0.17612341 -0.03021690 -0.42617470
-0.07791913 -0.01359899 -0.44916990
-0.18565780 -0.00917231 -0.34794623
-0.14929987 0.03939527 -0.33083031
-0.19851181 0.00616392 -0.34909067
-0.15471072 0.01600448 -0.39059916
-0.19781116 0.01461285 -0.35095173
-0.11475028 0.01491416 -0.48178035
-0.15235108 0.06250137 -0.35704696
-0.06946741 -0.00834865 -0.44211590
-0.20979248 -0.00501125 -0.36056221
-0.10814768 -0.02550098 -0.45543087
-0.13657777 0.05113503 -0.38582727
-0.18664731 0.01861326 -0.41682982
-0.09870361 0.02786624 -0.38727027
-0.12458768 -0.04251892 -0.41236937
-0.15704371 -0.00730666 -0.35722768
-0.14916109 0.03319949 -0.40614194
-0.14506221 0.04533526 -0.33944499
-0.09744287 0.03228023 -0.43509173
-0.12333976 -0.03951841 -0.47480857
-0.12608413 -0.00873136 -0.41741711
-0.20406872 0.04884521 -0.37845498
-0.11455713 0.04042549 -0.42220244
-0.15900411 -0.02471931 -0.36683434
-0.18328157 0.00356136 -0.34734935
-0.18245465 0.04358480 -0.41350347
-0.06742491 0.01508040 -0.43978792
-0.21874765 0.00144255 -0.39236796
-0.11113794 0.01612371 -0.37103862
-0.23116599 0.00436177 -0.40309468
-0.15933163 0.01844457 -0.40052426
-0.16403307 -0.01109079 -0.46813923
-0.15249178 0.04607416 -0.33397323
-0.17574866 0.06012077 -0.39235002
-0.17237611 0.03500683 -0.32269901
-0.15036196 -0.00452988 -0.48184231
-0.17483902 0.00346273 -0.34353435
-0.10305363 0.02937810 -0.41071594
-0.13728541 -0.01109116 -0.36739951
-0.18441319 0.00601210 -0.34179938
-0.10629845 0.01475570 -0.46370050
-0.18475425 0.04209615 -0.33992130
-0.16402939 0.06472544 -0.35228473
-0.17208852 0.03348652 -0.38925633
-0.11961641 0.03282947 -0.46553653
-0.07881100 0.02683657 -0.44677177
-0.20057666 0.04890388 -0.38959461
-0.20435107 0.05358862 -0.39617100
-0.09572414 0.04577859 -0.46238863
-0.09477751 0.04514224 -0.43231297
-0.07493220 -0.00729792 -0.40460023
-0.16381541 0.06422181 -0.36931387
-0.15076177 0.05217778 -0.34042385
-0.10542671 0.02914962 -0.42843276
-0.11035111 0.02339397 -0.47287598
-0.12611204 -0.02954761 -0.48414704
-0.20138317 0.01220251 -0.42043379
-0.21848390 -0.00323187 -0.39665261
-0.18960202 0.05750461 -0.38407344
-0.11980477 0.04360582 -0.45955038
-0.21760634 0.01575861 -0.40602034
-0.19032496 0.00091906 -0.35768303
-0.15622136 0.01192253 -0.46316591
-0.15172264 -0.04315450 -0.44448248
-0.14493749 0.02905404 -0.46789923
-0.19884989 0.03422148 -0.36561692
-0.07596223 -0.01856145 -0.41187632
-0.19235943 -0.01637461 -0.35972285
-0.09402831 -0.03336817 -0.45623627
-0.23109242 -0.00806068 -0.38475811
-0.11195583 0.03568045 -0.46733752
-0.14547436 0.04028491 -0.39169958
-0.17575358 -0.00441921 -0.33907497
-0.13245089 0.04632599 -0.43465048
-0.14648622 0.02615288 -0.39406881
-0.18391898 -0.01550385 -0.37139046
-0.14911905 -0.02696217 -0.39477935
-0.09323815 0.02049281 -0.46023870
-0.16732591 0.04706022 -0.42436486
-0.16268705 0.05422333 -0.38858193
-0.15188783 0.05867270 -0.40170541
-0.16666113 0.00903849 -0.38284549
-0.19322488 0.00025405 -0.35152131
-0.19445777 0.00927360 -0.34976900
-0.12663884 0.02876691 -0.36469042
-0.18390155 0.04655386 -0.36900216
-0.14785764 -0.03982585 -0.44761631
-0.14289625 -0.01856150 -0.39791346
-0.10452333 0.03574768 -0.44073105
-0.18243182 0.05636533 -0.37619725
-0.10636997 -0.05439157 -0.41712981
-0.14100972 0.04379715 -0.38932574
-0.08867495 0.05107915 -0.43052244
-0.20459557 0.03443996 -0.42090407
-0.17944735 0.02425887 -0.44575337
-0.22318488 0.01135770 -0.36784992
-0.17703269 -0.02724452 -0.39197588
-0.18802625 0.01253867 -0.35105258
-0.15454879 0.03663708 -0.40268382
-0.14645799 -0.01670251 -0.35107708
-0.23191026 0.00737950 -0.40826055
-0.20779476 -0.01783858 -0.36917403
-0.12251456 0.01606376 -0.48643768
-0.19396177 -0.00483352 -0.35429847
-0.10689205 -0.02695238 -0.41609672
-0.13867533 -0.00411479 -0.49362570
-0.19514038 -0.02080574 -0.36517218
-0.19239232 0.03672827 -0.37102968
-0.10140927 0.00046985 -0.37676081
-0.11470837 -0.02761950 -0.39443713
-0.11299990 -0.00874891 -0.41816488
-0.13809665 -0.01484018 -0.48598063
-0.09873158 0.01419485 -0.47287169
-0.20733474 -0.03195373 -0.38331240
-0.13806866 -0.04961725 -0.46520615
-0.21337852 0.03951171 -0.38380727
-0.11540976 0.00762277 -0.36544117
-0.19339553 0.03610369 -0.42543107
-0.17857489 0.03383708 -0.43641257
-0.18843824 -0.02633820 -0.38145870
-0.09752479 -0.02333464 -0.46302757
-0.10043484 -0.04381029 -0.43732205
-0.14136481 0.03951771 -0.43651175
-0.15902720 -0.00418470 -0.45962232
-0.10617310 -0.03794227 -0.42123026
-0.18476360 0.00154196 -0.44372293
-0.09819767 -0.04458046 -0.43389258
-0.12306646 0.04906921 -0.38868549
-0.12792042 -0.03068132 -0.43733233
-0.11975852 -0.05342514 -0.42119509
-0.17366982 0.06166629 -0.38364947
-0.14148711 -0.00223523 -0.33680856
-0.13999920 -0.03326235 -0.41950971
-0.21577226 0.03834286 -0.39496237
-0.21539946 0.01372525 -0.40862253
-0.19142874 0.02272406 -0.43876556
-0.13186692 0.00876836 -0.42292404
-0.18519965 -0.01425426 -0.36600673
-0.13086908 -0.03979810 -0.41518894
-0.16332452 -0.01636176 -0.45353603
-0.15893856 0.02544430 -0.47109935
-0.11337899 -0.00485840 -0.41255584
-0.20842411 -0.01976778 -0.37853086
-0.17768018 0.04693459 -0.40819284
-0.10497003 -0.03498850 -0.41257349
-0.17152455 -0.00880118 -0.36291850
-0.12203020 0.04614102 -0.41550878
-0.11198148 0.01890496 -0.47083241
-0.11131123 -0.04532248 -0.43798277
-0.20199719 0.03926092 -0.41532320
-0.14241689 -0.03685247 -0.45906717
-0.22285689 0.02385639 -0.39666986
-0.10770957 -0.05434666 -0.42426935
-0.07924711 -0.01621139 -0.43695325
-0.10344245 0.00736364 -0.37947682
-0.22128536 0.02344806 -0.37570292
-0.15484725 0.03921103 -0.32850653
-0.19278994 0.03847380 -0.33344743
-0.08287223 -0.02318022 -0.41049024
-0.10520050 -0.03643746 -0.45332161
-0.13833769 0.02531588 -0.44132900
-0.15492412 0.04921187 -0.38906452
-0.14922716 -0.02939723 -0.37993619
-0.14517711 0.01407443 -0.33320928
-0.14977646 -0.00328279 -0.47113484
-0.12507594 0.04918835 -0.38053620
-0.12201034 0.02547347 -0.42991805
-0.19627577 0.02290247 -0.33789241
-0.21400118 0.01093677 -0.37400061
-0.18433096 -0.00023966 -0.35667977
-0.08680280 -0.03961434 -0.40951407
-0.17598654 0.02131964 -0.33256415
-0.12014398 -0.04467472 -0.46360496
-0.10415182 0.00445005 -0.46972007
-0.22837032 0.00261923 -0.37276304
-0.10592537 0.02725958 -0.39031535
-0.22791648 0.00570804 -0.39031768
-0.21399832 0.02776084 -0.40741965
-0.13172488 0.02555184 -0.42536050
-0.18284294 0.00353855 -0.35633224
-0.12175187 0.03245047 -0.45003027
-0.18147588 0.03522126 -0.33926108
-0.11925606 -0.02634133 -0.37572703
-0.18650201 0.03620791 -0.33932710
-0.18610422 0.03261348 -0.43310729
-0.13363884 0.00434743 -0.34299842
-0.11830723 0.04658587 -0.40822339
-0.15191235 -0.03120061 -0.39427584
-0.08643793 -0.01947672 -0.43922308
-0.12129927 -0.04525369 -0.44770783
-0.23132473 -0.01168769 -0.40268415
-0.09894309 0.02023682 -0.45631170
-0.16158304 -0.01067900 -0.37320036
-0.16306670 0.05929306 -0.34630358
-0.12120637 0.04706928 -0.45163944
-0.11074498 -0.02360015 -0.47117674
-0.14536658 -0.01937578 -0.36491838
-0.20022574 0.04233807 -0.36664209
-0.16257848 0.01776268 -0.39397395
-0.16630790 0.00328052 -0.45799109
-0.19231996 -0.02185160 -0.38220799
-0.11519268 -0.04203011 -0.45458522
-0.20136413 0.03073696 -0.41622409
-0.09395208 0.04599112 -0.44510996
-0.12323174 -0.03509074 -0.43990758
-0.14522174 0.05592843 -0.40838882
-0.15371092 -0.00746730 -0.35348451
-0.10783861 -0.02808977 -0.42788488
-0.12459995 -0.02427533 -0.40239981
-0.07396115 0.02023293 -0.44419968
-0.13023807 -0.00143998 -0.42480040
-0.22877795 0.02041606 -0.41373885
-0.15185608 -0.01785666 -0.35917914
-0.16065799 -0.03986294 -0.44769487
-0.14485787 0.01446926 -0.45507115
-0.16905425 0.01951735 -0.32731175
-0.10036188 -0.00691895 -0.38174209
-0.15270695 0.03813631 -0.41189584
-0.15383314 -0.00956710 -0.45547828
-0.11685717 0.02349367 -0.44514072
-0.17664778 -0.02077254 -0.36662674
-0.14375491 0.04441539 -0.42918709
-0.08698077 -0.02537382 -0.42260465
-0.15981188 -0.03358279 -0.40275931
-0.15512992 0.02805245 -0.44538811
-0.12847932 -0.02003329 -0.40038437
-0.12812248 -0.03149154 -0.39296660
-0.16799931 0.06176112 -0.39170906
-0.11866692 -0.04518771 -0.45568526
-0.20592910 -0.01458232 -0.38021615
-0.12779467 0.03239558 -0.43995506
-0.16056347 0.04177015 -0.42840508
-0.12763447 0.01741953 -0.42165717
-0.12984043 -0.04293895 -0.43404460
-0.20065150 -0.00982015 -0.35649058
-0.14371452 0.01013072 -0.33738041
-0.13557915 -0.02023987 -0.39852744
-0.11430564 -0.04316986 -0.41147107
-0.11301252 -0.02743087 -0.45685822
-0.10611493 0.01066044 -0.47729835
-0.09166764 -0.00903202 -0.39396912
-0.13438712 -0.04399180 -0.43397507
-0.23354012 0.00673849 -0.39782113
-0.11588838 0.01864252 -0.41787273
-0.11342849 -0.03874459 -0.45593718
-0.15998936 0.00372242 -0.47292978
-0.18532249 0.03085170 -0.41682661
-0.10917470 0.02425379 -0.37304309
-0.15218516 -0.01134268 -0.46876132
-0.22141531 0.00831261 -0.40627217
-0.13055876 -0.04450902 -0.46352670
-0.18618378 0.01094506 -0.34240162
-0.12242497 -0.04918889 -0.41079021
-0.08199094 -0.02418491 -0.40189689
-0.13852206 -0.01586948 -0.36233965
-0.21946473 0.02400096 -0.39265192
-0.19863749 0.05666568 -0.39500698
-0.17529063 0.03815643 -0.43507376
-0.09803335 0.00586107 -0.46937880
-0.19595759 0.02955783 -0.42881915
-0.12188305 -0.02360763 -0.40741518
-0.11465697 -0.03872863 -0.41604057
-0.13988136 -0.01359102 -0.34815389
-0.11754137 0.00976678 -0.41734254
-0.15871818 0.04139736 -0.44127011
-0.08271971 -0.01681791 -0.44372931
-0.17501806 0.06776391 -0.37907153
-0.16592816 0.01382634 -0.45514312
-0.10409459 -0.03651111 -0.43648359
-0.19742344 0.01002712 -0.43087226
-0.19554240 0.04495133 -0.40488401
-0.13862659 0.05179907 -0.40781432
-0.16871765 0.05008054 -0.33802831
-0.17911687 0.04323301 -0.40800208
-0.12133630 0.04877226 -0.44532689
-0.15184988 -0.03588371 -0.41413757
-0.07926290 0.03867242 -0.42558655
-0.09051594 0.04447256 -0.45513138
-0.10241107 -0.02551105 -0.44251040
-0.18725623 -0.00213108 -0.36840904
-0.10529353 -0.02863307 -0.43541324
-0.16323915 0.03527638 -0.32659405
-0.13092411 0.02065233 -0.42365956
-0.11674044 0.02697283 -0.47314417
-0.19190560 0.04806907 -0.38806894
-0.09086582 0.01627533 -0.46457028
-0.15145433 0.02849622 -0.38401702
-0.12605549 -0.00678033 -0.49104482
-0.09311966 -0.00185347 -0.47024399
-0.17769904 0.02872760 -0.41958839
-0.15949717 0.01500224 -0.38279676
-0.19762346 0.04726866 -0.40112922
-0.22219108 0.02003144 -0.36874610
-0.15427436 0.03937451 -0.39889348
-0.17038818 -0.01960733 -0.43639880
-0.13809715 0.01895419 -0.46935108
-0.09935753 0.02269102 -0.46011451
-0.14614575 0.02800683 -0.38076010
-0.13569348 0.02789899 -0.45765141
-0.17670000 0.04713917 -0.39544281
-0.10510391 0.03340148 -0.45567599
-0.10632544 -0.02474043 -0.44526249
-0.13877752 0.00961243 -0.33753988
-0.19669127 0.05017876 -0.36727658
-0.14901651 0.00174688 -0.46376288
-0.15210713 -0.02711761 -0.38727891
-0.14257498 0.02237222 -0.45145592
-0.17422163 0.06502241 -0.37113497
-0.10065599 0.00478782 -0.37618104
-0.07880465 0.00927876 -0.45867750
-0.18749250 0.05320088 -0.39207241
-0.12043297 -0.04802660 -0.42523673
-0.19886921 0.03605963 -0.42376849
-0.11878492 -0.04094152 -0.40548900
-0.14333242 -0.01080660 -0.35879743
-0.10200605 -0.03981183 -0.41009831
-0.17848498 0.03982875 -0.41211283
-0.09668291 0.02368146 -0.39467180
-0.09404972 0.01899768 -0.40278584
-0.08597204 -0.04393334 -0.42715082
-0.16277221 -0.03617318 -0.43381736
-0.08567672 -0.04005671 -0.44422427
-0.12679274 -0.03530686 -0.39860365
-0.15646952 -0.01978499 -0.35938594
-0.13246545 0.04920885 -0.42418134
-0.15765135 0.02927866 -0.40262035
-0.16581704 0.04166465 -0.38975325
-0.09394046 0.04032901 -0.42494372
-0.12490854 0.00475177 -0.43267021
-0.15749002 -0.02795054 -0.39917237
-0.11568891 0.03530192 -0.41066504
-0.20905952 0.03559113 -0.41129491
-0.12558712 -0.01109960 -0.36752647
-0.17376308 0.04951931 -0.38914916
-0.09890081 -0.02047401 -0.38476902
-0.17183013 -0.02583168 -0.37651128
-0.09619492 0.01416929 -0.45329219
-0.15428674 0.01366288 -0.38653114
-0.15825862 0.00511046 -0.38113508
-0.09751286 0.00200547 -0.45861745
-0.07706794 0.03321499 -0.42058137
-0.18270394 -0.02789262 -0.42770237
-0.20200428 0.01114607 -0.34995201
-0.14067987 0.04765967 -0.37901255
