0.06320865 0.00717211 0.44441038
0.07812052 -0.03880398 0.42669678
0.11380390 -0.14114991 0.39618909
-0.00648192 -0.03095623 0.42485484
0.01379419 -0.05245139 0.37076804
0.07877719 -0.13955611 0.37959597
0.04721493 -0.02705760 0.41502139
0.01563794 -0.22863653 0.37775248
0.00662116 -0.02140749 0.41184554
0.05424629 -0.17419189 0.35254532
0.10762940 -0.13081472 0.39776966
0.00969163 -0.07824636 0.39730957
0.05992613 -0.06237235 0.40580198
-0.00839889 -0.07685645 0.42495763
0.07110581 -0.18081780 0.35988492
0.01737182 -0.05197665 0.39853418
0.04833348 -0.14009289 0.36615330
0.03755342 -0.01086049 0.41813865
0.09217238 -0.08090927 0.41374168
0.02733677 -0.17991395 0.36070821
0.05063451 -0.06455892 0.40163538
0.08592820 0.00455299 0.44730994
0.00586363 -0.15099297 0.39661175
-0.00047102 -0.03167102 0.41645378
0.04720995 -0.23938316 0.37051538
0.00884832 -0.20658556 0.37447813
0.00401372 -0.07589075 0.40555519
0.11418462 -0.10663641 0.41353983
0.09573222 -0.03296988 0.43839175
0.09091483 -0.18616091 0.36376905
0.07762738 -0.10050358 0.39460307
-0.00340150 -0.12007199 0.41087767
-0.01730740 -0.01693903 0.44354540
0.04739601 -0.01704583 0.41948760
0.08523712 0.00970431 0.45841309
0.11060165 -0.25308871 0.36435533
0.00527643 -0.05609314 0.40751070
0.02343255 -0.12846075 0.37183508
0.09733614 -0.10137007 0.40406612
-0.00063450 -0.00039950 0.40897101
0.08855873 -0.02510182 0.43722028
0.06371315 -0.24437404 0.36816403
0.09669766 -0.14640746 0.38593864
-0.01782653 -0.04544525 0.44525611
0.06212536 -0.08145602 0.39790919
0.06158730 -0.12635505 0.37555295
-0.01365163 -0.04549300 0.43524286
0.01790451 -0.00226583 0.41543221
0.04443030 -0.20426384 0.36373776
-0.00481527 -0.04632279 0.41980499
0.01677485 -0.17493571 0.37860122
0.02213271 -0.16602720 0.36923456
0.09785976 -0.12045403 0.39646259
0.01288679 -0.11147503 0.38483244
0.01602328 -0.15131627 0.37956554
0.10334574 -0.23695123 0.35550728
0.11896915 -0.12569205 0.40848228
0.09056363 -0.25807220 0.37160808
0.02771083 -0.13613807 0.36799413
0.09328394 -0.04433516 0.43259355
0.02040698 -0.14878447 0.36454549
0.02938247 -0.05690817 0.39693323
0.02160882 -0.23574336 0.37614357
-0.01572376 -0.02744804 0.44155663
-0.00500939 -0.08571658 0.41393983
0.05676648 -0.10983808 0.38162073
-0.00694198 -0.01347084 0.41770795
-0.01436216 -0.01053983 0.43621403
0.11117628 -0.11193833 0.40660042
0.08698303 0.00828733 0.43859741
-0.01376839 -0.06106167 0.43527257
0.11669007 -0.16208473 0.38709629
0.06958398 -0.05241312 0.41598928
0.01082383 -0.04395261 0.39530274
0.09060360 -0.07254225 0.41685921
0.00662298 -0.18610898 0.37422499
0.09716578 -0.05600832 0.42864400
0.06773409 -0.09695917 0.39199322
0.03324138 -0.07032840 0.39281005
0.02660253 -0.17088407 0.36250848
0.02960892 -0.04000203 0.40327120
0.02888920 -0.22636758 0.37019217
-0.01902045 -0.05518603 0.44896266
0.09560376 -0.24348393 0.35912362
-0.00353501 0.00434865 0.42730498
0.01308805 -0.06056039 0.39822593
0.04122251 -0.10112865 0.38041243
0.00428281 -0.16936234 0.39612502
0.01259864 -0.04881806 0.37911823
0.12306201 -0.23984063 0.35560372
0.03635685 -0.14008023 0.36376864
0.02745549 -0.08956967 0.38340265
0.00142752 -0.17830016 0.38673633
0.00986191 0.00746737 0.41194642
0.07653519 -0.24219415 0.36335483
0.00743401 -0.06007517 0.35798675
0.10028986 -0.07119973 0.42169681
0.06224989 -0.17724258 0.35546374
-0.00024976 0.00366758 0.41755554
0.01018172 -0.12604727 0.38941664
0.01847563 -0.12160141 0.37624267
0.04688033 0.00729303 0.43297699
0.07979091 -0.12112118 0.38682953
0.04484359 -0.04687092 0.40588409
-0.00834681 -0.02096402 0.42717230
-0.00810555 -0.10052282 0.42097256
0.04451957 -0.23093960 0.39780834
0.08799736 -0.12649651 0.38957956
0.01883808 -0.18108086 0.36033061
0.07855242 -0.00024917 0.44159150
0.02650573 0.00312388 0.41889960
0.00113625 -0.11951843 0.40302962
0.08074392 -0.25526941 0.37201744
0.01392366 -0.08271115 0.39143774
0.00938889 -0.14365977 0.39111665
-0.00404323 -0.10509524 0.41393173
0.08239155 -0.03014463 0.43248710
0.03641037 0.00716016 0.42449802
0.08893451 -0.10925879 0.39629254
0.06630363 -0.24198368 0.35912806
0.06174253 -0.16044915 0.36440483
0.11253285 -0.24107631 0.35678107
0.03485234 -0.17893837 0.35160056
0.08205441 -0.24106497 0.35600707
0.03806513 -0.03135006 0.40970460
0.01381005 -0.09248342 0.38770398
0.03863380 -0.23780587 0.36968094
0.04936901 -0.00000827 0.42609620
0.08791805 -0.05983425 0.42202854
0.07973827 -0.08296096 0.40602592
0.07627832 0.00714864 0.43320429
0.10829222 -0.07967176 0.42292204
0.05651199 -0.00694131 0.42696792
0.10922605 -0.06809134 0.43484327
0.06646387 -0.11134374 0.38357806
-0.01551890 -0.06796310 0.43926653
0.07492787 -0.17183720 0.36207733
0.03263261 -0.09699262 0.37971967
0.00663885 -0.04121416 0.40779215
0.01980464 -0.18753040 0.37321788
0.02775681 -0.15211116 0.36497772
0.06820501 -0.04477663 0.41815549
0.07097778 -0.13277441 0.37685823
0.04783332 -0.15945758 0.35777101
0.03425512 -0.16384864 0.35741052
0.08307439 -0.17059198 0.36055309
0.02544760 -0.18648323 0.36508474
-0.01932668 -0.01417831 0.45071974
0.06928182 -0.12503877 0.37736085
0.00692196 -0.15861985 0.39283341
0.04193362 -0.07226734 0.39487004
0.04856166 -0.03472778 0.41215843
0.04242777 -0.12625851 0.36903071
0.08976305 -0.01744547 0.44086877
0.05918264 -0.23880680 0.36487445
0.11579441 -0.15351586 0.39198899
0.04900763 -0.14918528 0.36275417
0.03161031 -0.12609909 0.36855868
0.10179936 -0.06363077 0.42540652
0.10489041 -0.16018786 0.38318795
-0.00038325 -0.10062049 0.40787810
0.01029206 0.00737900 0.41970104
0.09591274 -0.13627221 0.38949695
0.04576760 -0.13297218 0.36742926
0.06886631 -0.16379163 0.36519614
0.01261766 -0.16119356 0.38465947
0.05746955 -0.05068174 0.40880135
0.07911839 -0.10733514 0.39153132
0.08185743 -0.04695630 0.42503101
-0.00942344 -0.04862473 0.42644179
0.11435409 -0.11971325 0.40647280
0.10139805 -0.08652387 0.41435230
0.05222367 -0.11619893 0.37680030
0.04375082 -0.05607966 0.40260556
0.03138063 -0.08288981 0.38639593
0.04192536 -0.17146325 0.35081622
0.01123008 -0.00665467 0.41417012
0.02491749 0.01003195 0.41426736
0.12208419 -0.12680341 0.39865011
0.01615709 -0.03160309 0.40562594
0.01544960 -0.21716395 0.37226418
-0.01939879 -0.03348859 0.44960690
-0.00519843 -0.05745652 0.42181182
0.06135053 0.00613913 0.43607059
0.01263713 -0.17523849 0.38618299
0.00429469 -0.18202899 0.38110211
0.10506830 -0.10812876 0.40520594
0.09198096 -0.09639587 0.40435579
0.00289834 -0.19921011 0.38057190
0.09186163 -0.11653768 0.39503419
0.05133653 -0.18203555 0.35222620
0.00956788 -0.09755311 0.39167780
-0.01306670 -0.05244781 0.43284157
0.00908320 -0.03211439 0.40027097
0.05528478 -0.07938945 0.39668360
0.08460350 -0.18513370 0.36718318
0.05335629 -0.02556070 0.41856688
0.06786503 -0.08576330 0.39872435
0.00381953 -0.11044265 0.40040392
-0.00841994 -0.08172897 0.41964552
0.06504636 -0.06731738 0.40662077
0.06404867 -0.03856720 0.41738397
0.01921154 -0.18034108 0.37458786
0.02698325 -0.10228415 0.37736782
-0.01255893 -0.03729710 0.43210939
0.04324193 0.00707328 0.42688081
0.03261538 -0.02681186 0.41001046
0.06187591 -0.13593613 0.37274608
0.01068110 -0.20083505 0.36926305
0.08895265 -0.18024902 0.35967919
0.08233202 -0.09649885 0.39995319
0.10311830 -0.12496497 0.39768717
-0.00124635 -0.09146720 0.41059193
0.01433628 -0.04337425 0.40219012
0.00477639 -0.14259759 0.39697179
0.12600470 -0.17511922 0.38633060
0.03352171 -0.14737518 0.36257139
0.02312949 -0.01143153 0.41357696
0.08683853 -0.06616399 0.41826329
0.06197827 -0.03188533 0.42004567
0.09290737 -0.00960985 0.44687608
0.00006463 -0.04860542 0.41393852
0.11344285 -0.09299979 0.42065036
0.05250301 -0.09170775 0.38926890
0.00467461 -0.09166472 0.40112120
0.08153845 -0.00720954 0.44083691
-0.00962075 -0.06457175 0.42770588
0.01045259 -0.11683138 0.38846189
0.01058989 -0.05544200 0.40212125
0.03385201 -0.04535498 0.40239078
0.07265135 -0.04146469 0.42252517
-0.00172754 -0.06631701 0.41574362
0.03638680 -0.22850125 0.37013039
0.00919356 -0.10577144 0.39127141
0.05294437 -0.12555847 0.37294519
0.08269694 -0.25005341 0.36800945
0.07451163 -0.23579292 0.36198211
0.02725797 -0.11145572 0.37484661
0.02326366 -0.14616647 0.37068391
-0.00699907 -0.09195717 0.41849995
0.06184392 -0.10643955 0.38463554
0.10210253 -0.15046136 0.38681239
0.04221135 -0.08619776 0.38822758
0.00721210 -0.06167304 0.40413842
0.11454916 -0.17170706 0.38053563
0.08656849 -0.08227395 0.41015288
0.02775125 -0.06636755 0.39311895
0.01543009 -0.06017933 0.38798946
0.10905263 -0.08574337 0.42003632
0.07932538 0.00603178 0.43913683
0.06952471 -0.22908373 0.41942057
0.06225858 -0.01640340 0.42827728
0.07138135 -0.09295386 0.39599761
0.07714720 -0.07583378 0.40867418
0.09842694 -0.19020794 0.35947391
0.11776130 -0.11131375 0.41673160
0.08085518 -0.05716333 0.42022952
0.07328148 -0.06500008 0.41281095
0.09779900 -0.24876785 0.36296961
0.08991418 -0.00135932 0.44829684
-0.00308297 -0.00493784 0.41317463
-0.00315548 -0.03979483 0.41843936
0.03191437 -0.05140148 0.39965743
0.06688652 -0.02186792 0.42867669
0.00485119 -0.11660468 0.39816374
0.03768751 -0.11077310 0.37362143
0.12059328 -0.23370162 0.35557422
0.07884992 -0.13329811 0.38171443
0.06000661 -0.17102864 0.35654986
0.06402764 -0.05174115 0.41227862
0.06656202 -0.00119543 0.43570223
0.02068487 -0.11542801 0.37690061
0.09264276 -0.08682719 0.40991646
0.00734600 -0.12127347 0.39393711
0.05122729 -0.22638470 0.39323622
0.01217997 -0.01729981 0.41057119
0.02832147 -0.18658048 0.35920048
0.08941971 -0.13981602 0.38508406
0.08567456 -0.01225206 0.44126377
0.06403159 0.00389969 0.43054792
0.03669985 -0.05936456 0.39868236
0.01041109 -0.16914919 0.38419706
0.10180789 -0.09628052 0.40920874
-0.00055223 -0.08166146 0.41120249
0.01213013 -0.03664424 0.40472540
0.06173283 -0.05697791 0.40897426
0.00294092 -0.02635658 0.41492245
0.07138251 0.00568201 0.44096971
0.01537613 -0.06546892 0.39440063
0.01294763 -0.13124377 0.38383436
0.02429779 -0.08234195 0.38669086
0.04286909 -0.11673564 0.37284300
0.06167655 -0.09688118 0.38988307
0.05709654 -0.04087627 0.41285789
0.06905600 -0.24323004 0.36480722
0.09233476 -0.14981206 0.38271236
0.01754873 -0.09567977 0.38340700
0.07254352 -0.00079491 0.43800649
0.05260951 -0.01048037 0.42340207
0.04325721 -0.00076016 0.42279232
0.05627323 -0.06741711 0.40218574
0.02141141 -0.01686144 0.41079175
0.11326437 -0.12512182 0.40336394
0.00499394 -0.08160409 0.40300995
0.08742234 -0.04586975 0.42844477
0.02340351 -0.05492871 0.39641124
0.07703511 -0.03169988 0.42952225
0.07669745 -0.11204477 0.38813266
0.04230981 -0.16175994 0.35585660
0.05697637 -0.12175432 0.37589154
-0.01080015 -0.02616701 0.43029884
0.05783731 -0.02180757 0.42240664
-0.01256190 -0.03156725 0.43461946
0.05212544 -0.10576886 0.38263160
0.09184065 -0.25201881 0.36757910
0.01884093 -0.16124289 0.37529671
0.07239354 -0.02080394 0.43221885
0.00656459 -0.20093116 0.37574121
0.11395235 -0.16609597 0.38320673
0.01419916 -0.04791512 0.36653739
0.00381701 -0.03236713 0.41195914
0.00265120 -0.15137635 0.40190229
0.10794836 -0.13656490 0.39548007
0.02090415 -0.06756021 0.39185530
0.05731263 -0.08612531 0.39388669
0.08983123 -0.19180182 0.37036127
0.10800966 -0.14404176 0.39240894
0.02503677 -0.23074235 0.37223554
0.01544471 -0.06454556 0.38362148
0.03178899 -0.06248078 0.39582494
0.01327660 -0.21142244 0.37279952
-0.01569991 -0.01692252 0.43623000
0.06617066 -0.07758683 0.40151337
-0.00976209 -0.00614284 0.42877030
0.00096279 -0.12628539 0.40360376
-0.00391206 -0.11167498 0.41456798
0.01202150 -0.05161073 0.39360705
0.00092811 -0.10604744 0.40399793
0.12810485 -0.22288522 0.35078216
0.01157062 -0.02643383 0.40841433
0.03937237 -0.10571190 0.37681887
0.10155631 -0.11599465 0.40029743
0.11969586 -0.14453304 0.39800587
0.11209495 -0.15635304 0.38787594
0.01352781 -0.05334418 0.38343480
0.06151301 -0.15099663 0.36820167
0.03126921 -0.15609515 0.36208406
-0.01165087 -0.08211011 0.42704868
0.04130144 -0.13667899 0.36445332
0.08702669 -0.24074936 0.35941684
0.09317650 -0.12536755 0.39254722
0.03187344 0.00240859 0.42147321
0.03247911 -0.07655377 0.39007443
0.03197970 -0.01169351 0.41610992
-0.00011756 -0.07148404 0.41318637
0.01910678 -0.07659893 0.39102370
0.04417763 -0.09185346 0.38671824
0.02178119 -0.09138718 0.38317379
0.08784939 -0.23481712 0.35790879
0.04374220 -0.03082850 0.41200945
0.09737851 -0.07584090 0.41823441
0.07724975 -0.01083545 0.43802935
0.04074601 -0.18237579 0.35151422
0.01324165 0.00388780 0.41527283
0.09711079 -0.05036154 0.43191352
0.09625284 -0.03843682 0.43615869
0.08264159 -0.12642269 0.38704449
0.01874303 -0.14517568 0.37566411
0.06285510 -0.23421745 0.36749932
0.00783635 -0.21092865 0.37833729
0.00374839 -0.19103393 0.37569144
0.02301762 -0.13430662 0.37131873
0.01899075 -0.17127180 0.37457770
0.07183287 -0.03312905 0.42625487
0.06067847 -0.14130886 0.37073901
-0.00285272 -0.01134022 0.42132181
-0.00673372 -0.03676724 0.42417473
0.07756136 -0.07050812 0.41188097
0.05621411 -0.15139598 0.36559591
0.04510713 -0.08208731 0.39125940
0.01502734 -0.15642178 0.38231432
0.05753648 -0.00190379 0.42972487
0.06883760 -0.12014025 0.38048545
0.03672792 -0.08644831 0.38629332
0.10561174 -0.25061852 0.36232093
0.09887248 -0.02938277 0.44170287
-0.00345424 -0.07138023 0.41797036
0.00730506 -0.12979352 0.39275926
-0.01398363 -0.01484515 0.43057579
0.06744844 -0.01067770 0.43334398
0.09926438 -0.10694695 0.40290418
0.04099845 -0.15197703 0.35930270
0.00170838 -0.00591278 0.41644400
0.00553823 -0.04683751 0.40819520
0.03282208 -0.00564148 0.41893107
0.02238728 0.00716905 0.42390096
0.00535992 -0.13108918 0.39797696
-0.01325139 -0.00544242 0.43853268
0.01929159 -0.15050150 0.37373081
0.11749135 -0.23855014 0.35558593
0.09258837 -0.13168009 0.38978618
0.07567690 -0.08668894 0.40194020
0.00228097 -0.09603019 0.40383458
0.03267294 -0.11310707 0.37242582
0.00545981 -0.10572617 0.39776281
0.02891307 -0.17489882 0.35864979
0.08359565 -0.13926068 0.38251942
0.09158769 -0.05668911 0.42551196
0.00263678 -0.06114320 0.40916464
0.08190434 -0.09113564 0.40275607
-0.01051056 -0.07207851 0.42703918
0.02209205 -0.00619248 0.41532448
-0.00470112 -0.02632291 0.42203730
0.07839598 -0.02621113 0.43245378
0.02182453 -0.03198782 0.40520707
-0.00212441 -0.13565436 0.40825540
-0.00615598 -0.01460145 0.42444709
0.08313108 -0.11110602 0.39250851
0.11826563 -0.13920344 0.39894190
0.01593038 -0.11692398 0.37940595
0.05033440 -0.23335928 0.37011874
0.08119201 0.00648388 0.44502577
0.00211721 -0.14169671 0.40214640
0.01442135 -0.13594377 0.38125876
0.00455094 0.00672835 0.41025928
0.10050747 -0.24143076 0.35716987
0.09895103 -0.18425596 0.35532904
0.01881762 -0.13573220 0.37596247
0.05002373 -0.04670675 0.40786505
-0.00997756 -0.03157168 0.42947543
0.05061254 -0.24357504 0.37168136
0.01701112 -0.10592213 0.38237220
0.04218909 -0.06153390 0.40004739
0.02301614 -0.00080229 0.41724059
0.02440025 -0.03822284 0.40306616
0.01222703 -0.22441843 0.37863928
0.09101888 -0.03214625 0.43569866
-0.00323432 -0.12805730 0.41252246
0.02924828 -0.16664758 0.36028418
0.05343909 -0.14073446 0.36800125
0.03438019 -0.03448658 0.40716419
0.07374653 -0.05587090 0.41674477
0.11350794 -0.09471166 0.41546732
0.02315441 -0.07235935 0.39045307
0.05104831 0.00481448 0.42419940
0.02184397 -0.02591078 0.40758762
-0.01781157 -0.03587867 0.44499108
0.04178993 -0.09556545 0.38356978
0.08186468 -0.06796104 0.41508257
-0.01787511 -0.02158542 0.44627523
0.11832754 -0.14944237 0.39456227
0.06340473 -0.16515754 0.36231190
0.08057117 -0.23873407 0.36108240
0.03266291 -0.13648559 0.36537623
0.08690543 -0.09554142 0.40272531
0.01645590 -0.11146416 0.38014841
0.08976347 -0.12121047 0.39226282
-0.01630857 -0.01170013 0.44280231
0.02273626 -0.15149279 0.36856836
0.00068977 -0.01658475 0.41729680
0.02674687 -0.14140280 0.36844534
0.01484903 -0.12700534 0.38115209
0.10277604 -0.14580020 0.38936073
0.01478945 -0.05419882 0.37831032
0.02235117 -0.18098372 0.36886671
0.05223396 -0.09826564 0.38641793
0.07475299 -0.04628894 0.42167389
0.03476762 -0.23980013 0.37275535
0.06787744 -0.10156721 0.38934100
0.09410633 -0.14175293 0.38667873
0.02449368 -0.15607396 0.36652792
0.09235951 -0.10675175 0.39948785
0.05662127 -0.05710589 0.40645221
0.11557280 -0.11205580 0.41195413
0.04615725 -0.18317553 0.35237595
0.06609654 -0.17966110 0.35820067
0.10331361 -0.15540841 0.38485602
0.00718631 -0.10069326 0.39521554
-0.00151119 -0.10562257 0.40932173
-0.00408845 -0.05155759 0.41971338
0.00854185 -0.15218376 0.39221379
0.06679283 -0.02783937 0.42567316
0.10159381 -0.05543637 0.43146306
0.00557512 -0.09601337 0.39827150
0.00549055 -0.07098530 0.40432242
0.10646240 -0.19378901 0.35158995
0.12509724 -0.16612370 0.39019668
0.08278289 -0.04095156 0.42781594
0.02003756 -0.22913557 0.37493670
0.00318064 -0.05117400 0.41059878
0.00617883 -0.08672057 0.40026465
0.03746208 -0.07358477 0.39251554
0.04441788 -0.02038525 0.41682011
0.11261594 -0.14602226 0.39380187
0.08301978 -0.05178117 0.42346659
0.02249005 -0.11589739 0.36965537
0.06703359 -0.07303608 0.40486005
-0.00703210 -0.00313088 0.42410773
-0.00312844 0.00285630 0.42235601
0.07060153 -0.17577119 0.35882890
0.09686105 -0.01732026 0.44547904
0.03174356 -0.09201740 0.38185567
0.05700524 -0.11606314 0.37876686
0.02659444 -0.06159721 0.39473823
-0.00505035 -0.00960311 0.41419843
0.06436608 -0.24859804 0.37106407
0.03321597 -0.02052373 0.41316050
0.07378601 -0.12161995 0.38310423
0.05726296 -0.24105147 0.36909071
0.08576366 -0.07130206 0.41544637
0.04702305 -0.06090930 0.40190789
0.01313287 -0.07477868 0.39478838
0.00190964 -0.13132448 0.40395698
0.08721649 -0.17543805 0.35920784
0.04730220 -0.12667468 0.37058625
0.01913311 -0.12667800 0.37593538
0.03314258 -0.12130810 0.36954540
0.00710808 -0.01194010 0.41417715
0.00258839 0.00166896 0.41379943
0.04149768 0.00612053 0.42047134
0.05234884 -0.16140231 0.35913640
0.02244931 -0.16097161 0.36872187
0.05706226 -0.13667685 0.37109160
0.05215939 -0.01711468 0.42127585
0.10190605 -0.13145341 0.39464664
-0.00745749 -0.08668572 0.41904584
0.07572519 -0.24626780 0.36628747
-0.00753543 -0.00976194 0.42376685
0.02376143 -0.13106014 0.36632133
0.05239996 -0.14659223 0.36549395
0.05164748 -0.16720311 0.35579470
0.12236468 -0.17590714 0.38289890
0.10829826 -0.23797248 0.35554904
0.02847845 -0.14710438 0.36522347
0.07715672 -0.02138343 0.43378320
-0.00692839 -0.06140069 0.42485431
0.07851706 0.00848243 0.42888772
0.01857480 -0.18865585 0.37797433
0.00132733 -0.07649504 0.40977523
0.01128357 -0.15639065 0.38838166
0.03737067 -0.16658451 0.35454985
0.02142162 0.00398129 0.41727114
0.06242558 -0.13116592 0.37434199
-0.00198384 -0.11527104 0.40921903
0.05119165 0.00726287 0.43553242
-0.01128007 -0.06102264 0.43092912
0.06250197 -0.01161137 0.42968935
0.04638951 -0.01225950 0.42051888
0.03727864 -0.12641208 0.36759439
0.01427795 -0.22104105 0.37558150
0.03444744 -0.23267749 0.36819261
0.02190762 -0.04605031 0.39963952
0.04723471 -0.05123438 0.40547484
0.09691060 -0.08155315 0.41517079
0.01205239 -0.00178872 0.41490686
-0.01901598 -0.05020480 0.44879749
0.05208952 -0.11182802 0.37917975
0.02793940 -0.12192032 0.37122768
0.01038232 -0.13085690 0.38817254
0.09051658 -0.09208055 0.40633839
0.03654237 -0.10101992 0.37878886
-0.01596122 -0.04535532 0.44067878
0.04232474 -0.11149459 0.37517324
0.03101571 -0.14126298 0.36463642
0.02743230 -0.05219796 0.39773864
0.05639483 -0.04615571 0.41046044
0.01468847 0.00830585 0.42174074
0.00737430 -0.03634287 0.40789843
0.04729547 -0.10125767 0.38323236
0.02250534 -0.18588546 0.36928952
0.01410366 -0.17157884 0.38101262
0.03702025 -0.01640891 0.41607517
0.04670363 -0.17110376 0.35188258
0.04719513 -0.07705359 0.39472675
0.00256911 -0.02152993 0.41565821
0.08277991 -0.24298236 0.36210608
0.00735252 -0.01675342 0.41317683
0.01389350 -0.14633960 0.38414636
0.08174063 -0.13062100 0.38461351
0.04166994 -0.15664682 0.35804316
-0.01763900 -0.03100894 0.44521669
0.03867849 -0.02542477 0.41272768
0.00440320 -0.15608031 0.39856327
0.04755986 -0.11655038 0.37492964
0.08190423 -0.03643310 0.42937925
0.00391518 -0.14699954 0.39884183
0.01883998 -0.16643277 0.37496012
-0.00259326 0.00015257 0.41337663
0.01943723 -0.10039623 0.38134876
0.04606168 -0.04256531 0.40772274
-0.00618349 -0.05143770 0.42407131
0.00344147 -0.19453973 0.37944105
0.06663989 -0.11575196 0.38161460
0.04209020 -0.12171192 0.37061712
0.10295121 -0.10392567 0.40627763
0.02223400 -0.02136645 0.40927163
0.01296294 -0.05149018 0.40070724
0.01545305 -0.06191033 0.37772876
-0.00591999 -0.08012242 0.41535386
0.05261288 -0.13616005 0.36935595
0.01895407 -0.05672549 0.39629710
0.07331597 -0.09952413 0.39274576
0.10996892 -0.12655099 0.40020189
0.00332918 -0.18695828 0.38062865
0.07203898 0.00625156 0.43118650
0.06268024 -0.15543497 0.36689278
0.06328777 -0.10096712 0.38803852
0.02264768 -0.12147470 0.37375906
0.12187576 -0.15556380 0.39401683
0.06997093 -0.24857716 0.36967081
0.03098413 -0.13066040 0.36737168
0.04274001 -0.07663698 0.39312625
0.00648740 -0.00662839 0.41444170
0.06700542 -0.09181845 0.39454234
0.09413807 -0.18957226 0.36449337
0.07636224 -0.06207561 0.41543424
0.01166917 -0.06607310 0.39730382
-0.00629382 -0.07633966 0.42073625
-0.01265144 -0.04203907 0.43198463
0.08798966 -0.24943994 0.36585754
0.05813712 -0.17915294 0.35407913
0.01350186 -0.10659857 0.38602287
0.02760982 -0.02635471 0.40885276
0.09639477 -0.09676811 0.40603885
0.01663193 -0.16049412 0.37942025
0.08609144 -0.00148426 0.44550344
0.04228867 -0.00674549 0.42110604
-0.00658106 -0.04271121 0.42381600
0.01109561 -0.02178404 0.40954363
0.09126911 -0.06707589 0.41962907
0.09221824 -0.24573103 0.36153117
0.03735232 -0.00566947 0.42025766
0.00603073 -0.16580191 0.39358288
-0.01027644 -0.04830766 0.43106279
0.03829234 -0.04610250 0.40376320
0.04261184 -0.01619992 0.41799021
0.07847682 -0.09611071 0.39728293
0.01671248 -0.04751504 0.39987412
0.07156163 -0.01138160 0.43550128
0.06060861 -0.01856338 0.42436889
-0.00059745 -0.03635813 0.41620317
0.11240242 -0.15027979 0.39178967
0.07194468 -0.11214617 0.38495284
0.00872749 -0.08649878 0.39611468
0.08091287 0.00778651 0.43348703
0.03982784 -0.17715354 0.34956056
0.11854361 -0.16599418 0.38531539
-0.00502905 -0.10127342 0.41644078
0.05671048 -0.09667022 0.38853541
0.02863422 0.00611843 0.42177156
0.10348295 -0.13572776 0.39365306
0.02168812 -0.04167741 0.40124363
-0.01358044 -0.06644854 0.43514612
-0.00620735 -0.07180011 0.42177573
0.01239055 -0.05810520 0.37748757
-0.01780081 -0.04051568 0.44459295
0.06629359 -0.15998428 0.36608207
0.07325223 -0.05120990 0.41868454
0.06674658 -0.10718664 0.38563827
0.07672622 -0.22399560 0.42570889
0.11108971 -0.10371442 0.41168708
0.08327016 -0.10101950 0.39752918
0.07251495 -0.01644053 0.43379530
0.10640055 -0.09698761 0.41069299
-0.00980230 -0.03613072 0.42856941
0.12640214 -0.17059076 0.38875815
0.00702064 -0.02682191 0.40921178
0.09138364 -0.24029042 0.35791385
0.01024522 -0.11116496 0.38861737
0.12779488 -0.23612835 0.35490993
-0.00343704 -0.03108551 0.41993663
0.07181714 -0.07734953 0.40480375
-0.00047921 -0.09616300 0.40904176
-0.01496925 -0.04104928 0.43842629
0.09692706 -0.08777735 0.41129255
0.06139700 -0.04103538 0.41447827
0.03246841 0.00743861 0.42684323
0.09227455 -0.03654706 0.43485451
0.11913051 -0.24306145 0.35635021
0.01005032 -0.10157145 0.38951835
0.01143192 -0.01120643 0.41283298
-0.00341435 -0.00660844 0.42066494
0.02449189 -0.17975256 0.36500335
-0.00132284 -0.06153142 0.41616783
0.02481735 -0.14707439 0.36248162
0.04189446 -0.01103773 0.41958383
0.02261604 -0.10275114 0.37860644
0.04660576 0.00442979 0.42516160
0.01265740 -0.11590818 0.38378671
0.09202407 -0.02138956 0.44056466
-0.00142151 -0.08651429 0.41125152
0.09228644 -0.10251181 0.40112460
0.02463541 -0.16614032 0.36544728
0.01713901 -0.15569514 0.37836078
0.11979145 -0.16037874 0.38993564
0.00733840 -0.14644830 0.39405090
0.01288508 -0.08697937 0.39033955
0.02748993 -0.09651887 0.37997031
0.01045354 -0.12132946 0.38886404
0.06070893 0.00667724 0.44050577
0.02798542 -0.02182308 0.41079086
0.03663259 -0.17172003 0.35264534
0.07642930 -0.11652641 0.38630489
0.08745646 -0.04168672 0.43009907
0.01775704 -0.00675985 0.41427889
0.00994411 -0.22065663 0.37955651
0.00745961 -0.05912399 0.36268502
0.01780178 -0.09151328 0.38524964
0.05192599 -0.02135756 0.41983208
0.05678508 -0.09197628 0.39058369
0.10684635 -0.24214613 0.35632962
0.02799083 -0.10707860 0.37564397
0.04193061 -0.14091387 0.36313909
0.10263538 -0.11100961 0.40280491
0.06761450 -0.03176700 0.42359537
0.00229830 -0.07158583 0.40942875
-0.01397614 -0.04990731 0.43639871
0.05217898 -0.03145239 0.41506594
0.07641043 -0.10379235 0.39165729
0.05599863 -0.16865152 0.35646036
0.11795521 -0.16988623 0.38275734
0.05748289 -0.12654454 0.37383530
0.09202333 -0.18345562 0.36001325
0.01176308 -0.14651465 0.38866299
0.03752993 -0.04190763 0.40503806
0.12887821 -0.22713456 0.35182628
0.05242814 -0.12137850 0.37435845
0.09760290 -0.11584312 0.39828154
0.05264354 -0.03606413 0.41326112
-0.00419942 -0.01703537 0.42130649
0.10731095 -0.11191842 0.40444356
0.01629983 -0.14100939 0.37815979
-0.00652716 -0.09738944 0.41806155
-0.00611896 -0.11001743 0.41801789
0.04675343 -0.15209860 0.36031568
0.06028141 -0.24581517 0.37053379
0.09684142 -0.06175831 0.42496943
0.06869419 -0.05623387 0.41398898
0.03780639 -0.09601618 0.38174984
0.05715710 -0.07144213 0.40064242
0.01633427 -0.14647321 0.37911054
0.09096404 -0.00551868 0.44733962
0.05259307 -0.00612470 0.42517823
0.04013840 -0.23392862 0.36829621
0.08638064 -0.18259680 0.36408192
0.04331243 -0.06587616 0.39859241
0.06693362 -0.08168790 0.40001833
0.09751560 -0.14031607 0.38899466
0.02774182 -0.00105692 0.41906792
0.08192066 -0.08679008 0.40522587
0.06664307 -0.00643438 0.43412951
0.06185158 -0.07658601 0.40046459
0.03217372 -0.08670531 0.38444978
0.02754238 -0.01125108 0.41490629
0.01715800 -0.06137095 0.39398682
0.08760025 -0.02046922 0.43860453
0.10766357 -0.11645882 0.40319231
-0.01201927 -0.07602907 0.42803922
0.00427040 -0.03699792 0.41086230
0.03297038 -0.01639606 0.41451222
-0.01935299 -0.04139245 0.44913897
0.04317486 -0.05082230 0.40402517
0.01407777 -0.05339919 0.38796657
0.04261709 -0.16634533 0.35366815
0.05774562 -0.16056745 0.36276558
0.08237800 -0.10621332 0.39413598
0.08288646 -0.02629016 0.43437463
0.07523896 -0.13113454 0.38042372
0.04187198 -0.13139284 0.36644012
0.00647468 -0.06666106 0.40415803
0.02247420 -0.17133886 0.36866903
0.07069800 -0.06706710 0.41004559
0.10546983 -0.25339872 0.36561120
0.04811592 -0.09138865 0.38840565
0.00502449 -0.12136301 0.39814615
0.00913775 0.00306712 0.41427347
0.11181255 -0.13665731 0.39736122
0.02130702 -0.21852292 0.37143296
0.04959561 -0.16347684 0.35640991
0.00946064 -0.16028634 0.38742936
0.06242313 -0.11159972 0.38215131
0.11381888 -0.12906902 0.40178195
0.02014012 -0.17623505 0.37247828
0.05780764 -0.07642843 0.39847144
0.04597719 -0.07270820 0.39619836
-0.01242452 -0.02729333 0.43455207
0.07763299 -0.06593492 0.41410020
0.04632437 -0.11264244 0.37615710
0.03741585 -0.14627290 0.36120850
0.08966263 -0.18888439 0.36680749
-0.01327235 -0.05622394 0.43481758
0.06270915 -0.00104311 0.43387538
0.05917210 -0.01347534 0.42713711
0.02336020 -0.11192074 0.37648994
0.06590670 -0.04727402 0.41559091
0.10258579 -0.12097175 0.39905223
0.03247794 -0.00162443 0.42027545
-0.01436003 -0.03009160 0.43853176
0.03736214 -0.12152725 0.36930948
0.07198861 -0.10259506 0.39015773
0.09198032 -0.07641849 0.41588750
0.00378688 -0.17836247 0.38323504
-0.01449461 -0.02154712 0.43834263
-0.01902183 -0.02589530 0.44887957
0.07896730 -0.17486785 0.36177185
0.05195946 -0.05036791 0.40708265
0.05046311 -0.15342294 0.36192125
0.04863733 -0.13613655 0.36756679
0.05740007 0.00649129 0.43466231
-0.00159560 -0.02097695 0.41577727
0.07825062 -0.01481143 0.43715417
0.01057728 -0.07092857 0.39841488
0.03183453 -0.10063437 0.37782356
0.04258237 -0.02672160 0.41347963
-0.00353914 -0.06063691 0.41959825
0.10195045 -0.09023958 0.41251755
0.02646596 -0.04207119 0.40145326
0.02965295 0.00695132 0.41753557
0.00775125 -0.14091134 0.39379969
0.08247235 -0.13511740 0.38329798
0.03591954 0.00326273 0.42223495
0.04811446 -0.17676441 0.34959957
0.01172514 -0.16385308 0.38774493
-0.00985450 -0.05215093 0.42950949
0.03797318 -0.16221583 0.35651276
0.00833599 -0.19057296 0.37259671
0.06023408 -0.03719173 0.41555020
0.02121719 -0.13142866 0.37370685
0.01696698 -0.18095706 0.37890789
0.08480683 -0.23720436 0.35987610
0.05380567 -0.07565059 0.39766416
0.08284369 -0.08143690 0.40856549
0.03136332 -0.03166607 0.40730456
0.08247451 -0.00118681 0.44354087
0.05323531 -0.08778372 0.39148012
0.04760280 -0.05610319 0.40407383
0.10721509 -0.14008263 0.39347059
0.09861140 -0.15129143 0.38479516
0.08898956 -0.19298567 0.37421307
0.02343171 -0.05104254 0.39774767
0.01372124 -0.05601419 0.39952508
0.07160960 -0.08653066 0.40022194
-0.00902778 -0.01725319 0.42879003
0.00582235 -0.05168281 0.40749970
0.03260605 -0.06627609 0.39449635
0.10050204 -0.06066144 0.42791957
0.09043433 -0.01151393 0.44421732
0.07667398 -0.07933511 0.40659961
0.10274456 -0.07447723 0.42159769
0.09146100 -0.04698632 0.43006268
0.07172834 0.00664265 0.44550052
0.03387275 -0.15138274 0.36182901
0.01699114 0.00321487 0.41675255
0.02776355 -0.12618601 0.36993536
0.09209774 -0.13559660 0.38822898
0.00690049 -0.17876011 0.37972346
-0.01625738 -0.02058261 0.44207349
-0.00043163 -0.11708502 0.40588701
0.09555339 -0.02772877 0.44003439
0.09256506 -0.11041316 0.39774424
0.10301940 -0.08382578 0.41690537
0.02756927 -0.03603747 0.40432256
0.07178079 -0.03687049 0.42453390
-0.00175682 -0.00233430 0.41644490
-0.01218319 -0.00796898 0.43399516
0.03111500 -0.16955963 0.35815442
0.02595935 -0.13201715 0.36978251
0.05721767 -0.10642317 0.38371345
0.01350614 -0.20907840 0.36953127
0.08886932 0.00392465 0.44998005
0.06997875 -0.13655867 0.37549561
0.02766898 -0.15641224 0.36409366
-0.00135730 -0.05155606 0.41625476
0.01399129 -0.09621415 0.38624364
0.01614841 -0.01715427 0.41001728
0.05018096 -0.10816806 0.38008079
0.11212853 -0.11556138 0.40519151
-0.00507502 -0.02152368 0.42335436
0.01530121 -0.06944987 0.38889420
0.00785189 -0.11594162 0.39306042
-0.01713176 -0.04913729 0.44390681
0.01796439 -0.18525988 0.37597799
0.07824145 0.00714508 0.44923827
0.04739600 -0.06605809 0.39986092
0.00114229 -0.13650452 0.40336370
-0.01234183 -0.06477877 0.43171427
0.07872691 -0.17068441 0.36179119
0.07740065 -0.05634005 0.41843212
0.01075260 -0.13624001 0.38737509
0.05872714 0.00456290 0.42831746
0.11120328 -0.13152541 0.39934617
0.06198664 -0.18116559 0.35597911
-0.00858211 -0.04607989 0.42323703
0.06184291 -0.24125446 0.36648971
-0.01881971 -0.01756879 0.44874015
0.01735093 -0.08098085 0.39048153
0.01230360 -0.03132757 0.40643996
0.08214907 -0.01222296 0.43949640
0.05696303 -0.02668093 0.41969672
0.00754575 -0.09611903 0.39486066
-0.00273965 -0.05570792 0.41892877
0.10673184 -0.14720009 0.39044228
0.12064783 -0.16370398 0.38801721
0.04542527 -0.14749995 0.36222306
0.06334956 -0.02325044 0.42633596
0.11059973 -0.07753421 0.42753127
0.00511919 -0.20343083 0.37840104
0.05224789 -0.08088171 0.39469773
0.09093733 -0.02851024 0.43716782
0.00669544 -0.12613693 0.39403650
0.04833081 -0.08094461 0.39317593
0.05633004 -0.01106694 0.42592242
0.09910530 -0.06761997 0.42274937
0.10853328 -0.16138794 0.38394406
0.07149605 -0.04685661 0.41959417
0.05259912 -0.07158965 0.39899701
0.03165809 -0.22999461 0.36868042
0.07192128 -0.16941260 0.36262074
0.06069200 -0.00803706 0.42963102
0.06072911 -0.12134610 0.37683594
-0.01302076 -0.01119240 0.43198752
0.09868281 -0.04653504 0.43396944
0.01321433 -0.16622919 0.38505569
-0.00718343 0.00298218 0.43137234
0.06789689 -0.06997317 0.40708581
0.03316941 -0.04173675 0.40360960
0.08247589 -0.02183132 0.43598521
0.01608462 -0.08714281 0.38777933
0.08665660 -0.07558550 0.41348296
0.06725790 -0.04106828 0.41869920
0.00365112 -0.04131258 0.41083956
0.07723672 -0.00707833 0.43892461
0.10705380 -0.09373595 0.41276702
0.10678697 -0.15698135 0.38540307
0.01090621 -0.14128189 0.38849619
0.10235175 -0.24463069 0.35889432
0.00336791 -0.10609770 0.40097320
-0.00127947 -0.12630357 0.40796086
-0.01034893 -0.00408120 0.43195197
-0.01032589 -0.08021811 0.42398858
0.00812551 -0.16920869 0.38807443
0.04474054 -0.03905518 0.40849060
-0.00212896 -0.11099038 0.40951970
0.04706530 -0.02314516 0.41690955
0.04647485 -0.23174942 0.37001866
0.06924442 -0.15717068 0.36530280
0.01167933 -0.08113569 0.39410380
0.09565471 -0.04200856 0.43448898
0.11138612 -0.11960388 0.40406498
0.08121616 -0.16672680 0.36098912
0.06129660 -0.16726333 0.35993695
0.06083950 -0.23999345 0.36165592
0.11596356 -0.12449639 0.40597779
0.07307074 -0.24069543 0.36290234
0.01250839 -0.12568328 0.38383937
0.05715486 -0.15630135 0.36442131
0.03642293 -0.10720309 0.37495026
0.00688778 -0.09249193 0.39773467
0.06557076 -0.06153507 0.40961763
0.05215197 -0.06158616 0.40342170
0.02473342 -0.16100219 0.36560741
0.00529943 -0.13780545 0.39710382
0.09599075 -0.10695943 0.40100923
0.03769343 -0.03622273 0.40772557
0.00270410 -0.09134014 0.40432680
0.04219366 -0.04215271 0.40660283
0.02386200 -0.14148690 0.37087348
0.03329346 0.00593886 0.42277279
0.05424125 -0.18424676 0.35323185
0.02229730 -0.07662684 0.38902581
0.02925259 -0.11758294 0.37185264
0.07262462 -0.12592177 0.38054150
0.06160522 -0.08684272 0.39507478
0.05710586 -0.14094651 0.36963084
0.05194663 0.00523786 0.42965096
0.05100861 -0.14291038 0.36614674
0.06569014 -0.03607990 0.41966373
0.09316927 -0.12182599 0.39378431
0.01360849 -0.15080100 0.38491419
0.01637376 -0.02668914 0.40711769
0.00297757 -0.04690567 0.41091481
0.07368004 -0.07422850 0.40757069
-0.00827691 -0.09283071 0.42189738
0.07508156 -0.09458024 0.39716700
0.02159503 -0.03571370 0.40393236
0.02048399 -0.16073868 0.37199172
0.00886081 -0.06404015 0.40178299
0.08749993 -0.13135876 0.38779396
0.05798895 -0.08186252 0.39605269
0.00948356 -0.20575193 0.37091255
0.01776515 -0.04143200 0.40190125
0.02686425 -0.07243770 0.39036074
0.05684949 -0.23728094 0.36732444
0.06454624 -0.05590481 0.41113684
0.09763739 -0.23613754 0.35678801
0.11473559 -0.13413608 0.39983982
0.05248554 -0.17105560 0.35342896
0.10650357 -0.12593564 0.39905065
0.01536241 -0.12180031 0.38024074
0.05807014 -0.13110414 0.37285626
0.02196807 -0.15507710 0.36907524
0.02444322 -0.17606018 0.36520040
0.02299267 -0.10662720 0.37657246
0.10210703 -0.10044885 0.40719587
0.09204939 -0.04089130 0.43309489
0.01054576 -0.20998928 0.37482768
-0.00683425 -0.05617635 0.42486116
0.00590998 -0.19738761 0.37496871
0.04060740 -0.00349336 0.42151591
0.09966272 -0.12365769 0.39628842
0.09046803 -0.09943379 0.40199041
0.06814575 -0.24562612 0.36744529
0.10822153 -0.24863875 0.36065188
0.07397431 -0.06831224 0.41115540
0.00736211 -0.13639088 0.39380476
-0.00199103 -0.04703066 0.41654170
0.08783588 -0.10585624 0.39712587
0.06884052 -0.06395783 0.41063562
0.03747285 0.00755034 0.42798850
0.03070568 -0.16023412 0.36131096
0.01257848 -0.17621340 0.38264790
0.07166342 -0.06138876 0.41336694
0.01869049 -0.22384438 0.37318224
0.04323637 -0.10584834 0.37890831
0.00835159 -0.15592961 0.39082164
0.07829294 -0.23588184 0.36113042
0.08384728 -0.05599033 0.42196134
0.03768797 -0.18398681 0.35267678
0.03347750 -0.22639468 0.37071872
0.05238225 -0.10157318 0.38490608
0.06105372 -0.05180289 0.41018829
0.08775200 -0.03146867 0.43425509
0.00175590 -0.03611827 0.41333422
0.02476298 -0.01552550 0.41223609
0.09267611 -0.06162430 0.42308909
0.05053172 -0.02735882 0.41645828
0.07100891 -0.23636581 0.36315560
0.01100513 -0.08572925 0.39317229
0.07303753 -0.09068292 0.39827937
0.03268437 -0.05621471 0.39823186
0.01360203 -0.07118106 0.39472839
0.00691684 -0.08100581 0.40001020
0.04647201 -0.08661150 0.38994759
0.00814393 -0.16217737 0.39046231
0.01128580 -0.04750969 0.39566249
0.00316837 -0.05634099 0.41042405
0.05097464 -0.15683168 0.36068562
0.01251809 -0.19829041 0.36749166
0.04184131 0.00506699 0.42423558
0.07353409 -0.13508518 0.37791097
0.09333323 -0.14607379 0.38469505
0.08640939 -0.11169119 0.39388165
0.07304833 -0.09644410 0.39458877
0.01966861 -0.07213114 0.39131808
0.00186757 -0.11147984 0.40324321
-0.01171212 -0.00281619 0.43661749
0.00927601 -0.08181316 0.39669091
0.08070412 -0.10225752 0.39521742
0.02573616 -0.15009391 0.36717549
0.10555656 -0.08942874 0.41453281
0.06465783 0.00506692 0.43518922
0.02895638 -0.07868572 0.38764006
0.01606071 -0.07555684 0.39260054
0.09059636 -0.11269597 0.39580879
0.10081692 -0.07673681 0.41939279
0.00432527 -0.08511303 0.40318581
0.04079104 -0.05683488 0.40075305
0.00820334 -0.07624726 0.39986253
0.08280952 -0.12144357 0.38869533
0.05258245 -0.15119627 0.36372015
0.00495765 -0.10141762 0.39790276
0.00965638 -0.06057226 0.40171316
0.08225809 -0.11632401 0.38980389
0.01086060 -0.19176656 0.37039340
0.08509172 -0.04776931 0.42626303
0.09355935 -0.05461404 0.42761850
0.04145230 -0.08146520 0.39016938
0.10625952 -0.10544024 0.40719882
0.01175436 -0.09673740 0.38894862
0.01429022 -0.06681341 0.39130333
0.00603122 -0.16929863 0.39299455
0.10129435 -0.25295153 0.36681971
0.06919731 -0.07900167 0.40269363
0.07316387 -0.24397475 0.36543322
0.11313939 -0.11071468 0.40975699
0.08665276 -0.12156475 0.39060932
0.00583894 -0.15600635 0.39496031
0.00541969 -0.05990491 0.40661904
-0.01536613 -0.02386771 0.44113412
0.06718644 0.00598221 0.43825480
0.02733267 -0.09257630 0.38156134
0.03780235 -0.13638112 0.36478052
0.06131519 -0.02854838 0.42153475
0.08761790 -0.05662549 0.42344764
0.11519049 -0.15650897 0.38954452
0.09209083 -0.01600764 0.44307876
0.03266917 -0.11637862 0.37114394
0.06834292 -0.10472254 0.38756639
0.00627177 -0.20644733 0.37686065
0.09355347 -0.09128089 0.40791047
0.03284547 -0.03716131 0.40548545
-0.00335779 -0.04328680 0.41873461
0.03762519 -0.15186901 0.36026639
-0.00663955 -0.02651924 0.42495465
0.08682252 -0.09170287 0.40501475
0.05669297 -0.06164703 0.40465519
-0.00966629 -0.07507883 0.42221570
0.05361897 -0.12887870 0.37198830
0.04879646 -0.10484008 0.38205943
0.00289146 -0.12180894 0.40088728
0.08864652 -0.13483982 0.38691032
0.04551340 -0.13662028 0.36607683
-0.00368451 -0.09099978 0.41305062
0.11542959 -0.17465509 0.37888503
0.09949892 -0.09800190 0.40705419
0.05248658 0.00016528 0.42765796
0.01266028 -0.04642586 0.40198842
0.03642185 -0.10388169 0.37654346
0.07980210 -0.12444089 0.38577592
0.06580812 0.00615029 0.44233260
0.04025161 -0.11345769 0.37318465
0.05179286 -0.00289647 0.42617148
0.01182603 -0.04161924 0.40382230
0.06127812 -0.14621139 0.36953828
0.07666262 -0.12141714 0.38502425
-0.00767817 -0.06595204 0.42518133
0.02030714 -0.05342039 0.39677179
0.00750006 -0.05612370 0.40485638
0.07898729 -0.24193595 0.35735726
0.04029154 -0.07829774 0.39133155
0.05301533 -0.16467141 0.35771328
0.06222355 -0.03559323 0.41787687
0.02195508 -0.18923536 0.36990020
0.05665814 -0.24435134 0.37077260
0.02652186 -0.17663294 0.36137411
0.08111875 -0.07752475 0.40964943
0.04176091 -0.10818540 0.37660721
-0.00458112 -0.04086535 0.42138308
0.08040956 -0.00320697 0.44168794
0.11379653 -0.16229266 0.38526613
0.01276047 -0.04809633 0.38476148
0.10236645 -0.24955785 0.36204377
-0.01339415 -0.00361215 0.44142294
0.02590632 -0.22480080 0.37079948
0.01686905 -0.13564798 0.37888718
0.01894863 -0.13053972 0.37610620
0.09720311 -0.07169016 0.42031857
0.04738439 -0.15643285 0.35929292
-0.01892103 -0.04549620 0.44849068
-0.00353327 -0.10098851 0.41338584
0.05343060 -0.10929139 0.38116062
0.09796734 -0.15534541 0.38241246
-0.00455753 -0.07682928 0.41772875
0.06425195 -0.02868146 0.42336610
0.12103534 -0.17777762 0.38039610
0.02059472 -0.12573895 0.37301838
0.00026759 -0.02606559 0.41699114
0.00248498 -0.16338632 0.40156776
0.03079636 -0.15080489 0.36313757
-0.00112318 -0.04276545 0.41602680
0.07050309 -0.16674857 0.36416364
0.03294241 -0.17498685 0.35442212
0.03498142 -0.09346250 0.38203120
-0.01124228 -0.04613786 0.42865434
0.00808655 -0.05077741 0.40458179
0.01978764 0.00028384 0.41660535
0.08448102 -0.17363088 0.36002699
0.00449876 -0.06579843 0.40675905
0.03159921 -0.07288458 0.39133510
0.04799019 -0.07062164 0.39792982
-0.00498516 -0.09024380 0.41640079
0.01506021 -0.11449989 0.38158807
-0.01430017 -0.02634083 0.43870527
0.07542716 -0.10725552 0.38924798
0.01851348 -0.17573924 0.37539098
0.00338523 -0.13151048 0.40092984
0.01822590 -0.21945959 0.37242711
0.04644302 0.00654130 0.42778379
0.05490892 -0.15902430 0.36181399
0.06054893 -0.00354917 0.43122274
0.09595423 -0.06744847 0.42117703
0.05704952 -0.03641021 0.41481563
0.02501437 -0.11468952 0.37253791
0.03641509 -0.06236943 0.39722303
0.09154782 -0.02545450 0.43869579
0.02746290 -0.08647687 0.38469514
0.00151596 -0.08141039 0.40857759
0.11072530 -0.14049213 0.39504442
0.03409249 -0.16691385 0.35607436
0.02097100 -0.02897113 0.40638089
0.04896637 -0.01072562 0.42200667
0.08779039 -0.08686569 0.40826079
0.09754086 -0.12641746 0.39421129
0.03253678 -0.10350378 0.37625796
0.01753934 0.00604241 0.41894060
0.04420081 -0.10150541 0.38187712
-0.01588865 -0.03144036 0.44117489
-0.01200874 -0.05601152 0.43173692
-0.00636324 -0.08329263 0.41629347
0.05872479 0.00061427 0.43156233
0.09484416 -0.11737318 0.39626858
0.08198200 -0.03344899 0.43086290
-0.00294539 -0.02665050 0.41923156
-0.00171133 -0.11988585 0.40802023
0.11046514 -0.09522673 0.41422978
-0.00841105 -0.00615368 0.42421937
0.07929449 -0.02965190 0.43138605
0.08228134 -0.07092725 0.41365144
0.03678839 -0.17621377 0.35047653
0.08709419 0.00145761 0.44732621
0.04734726 -0.03734726 0.41054899
0.07741653 -0.04839718 0.42214525
0.09389523 -0.09447120 0.40624002
0.09421502 -0.02383123 0.44091520
0.01949802 -0.06354953 0.39286837
0.05148691 -0.03854939 0.41143063
0.08680062 -0.14064205 0.38326132
0.09364896 -0.24813518 0.36327204
0.08573292 -0.02261932 0.43694764
0.01064177 -0.08970691 0.39219412
0.06937202 -0.02010747 0.43111873
0.08592525 -0.03352689 0.43245223
0.07576769 -0.02736121 0.43084991
0.03600411 -0.11314642 0.37210390
0.01645585 -0.05501043 0.39768642
0.05800608 -0.11888608 0.37710506
0.00757318 -0.10638932 0.39405549
0.00169868 -0.10082310 0.40388134
0.04237811 -0.03679074 0.40865627
0.08512676 0.00839902 0.45541191
0.04660032 -0.23626480 0.36972421
0.04777565 -0.03170541 0.41314113
0.07246459 -0.10943439 0.38671070
0.08794004 -0.24341962 0.36108661
0.02966139 -0.11444953 0.37268317
0.02895163 -0.22837311 0.36761615
0.00197813 -0.14574644 0.40226755
0.08079451 -0.04296002 0.42619157
0.09197082 -0.23731744 0.35673025
0.02257228 -0.08543371 0.38596863
0.03889778 -0.14190933 0.36251441
0.06982490 -0.04146525 0.42065188
-0.01567724 -0.01525623 0.43901870
0.01486247 -0.16126606 0.38232130
0.00045228 -0.06068737 0.41359085
0.02724971 -0.06931007 0.39185971
0.09542522 -0.10334487 0.40235728
-0.01641110 -0.04241563 0.44195378
0.08297998 -0.06157026 0.41883573
0.00840086 -0.07162260 0.40070036
0.07783706 -0.04179844 0.42551699
0.02076559 -0.01389456 0.41188836
0.09533595 -0.07769211 0.41655436
0.06803671 -0.08951759 0.39655760
0.03875265 -0.16894923 0.35284236
0.11713788 -0.11358919 0.41432351
0.07443474 -0.08377038 0.40294731
0.00026053 0.00021666 0.41549391
0.01190660 0.00612690 0.41717017
0.10209054 -0.12762882 0.39619520
0.01562786 -0.17660095 0.38110769
0.06690630 -0.06567359 0.40867156
0.07005353 -0.11627141 0.38203388
0.01521840 -0.07939036 0.39228335
-0.00335778 -0.11617688 0.41197574
0.13010533 -0.23377205 0.35356006
0.02982998 -0.13390274 0.36709279
0.04829928 -0.09428880 0.38704890
0.09227383 -0.05162749 0.42838463
0.07308011 -0.17408416 0.36072865
0.06924976 0.00606500 0.44355023
0.06479783 -0.04139649 0.41607460
0.08322079 -0.09409446 0.40187892
0.07737338 0.00584474 0.44350263
0.11073587 -0.12356541 0.40215558
0.02665979 -0.14617366 0.36769050
-0.00829419 -0.07130377 0.42486262
0.03758951 -0.07659569 0.39130157
-0.01186119 -0.04100839 0.42906713
0.03644877 -0.16006848 0.35830933
0.06293797 -0.11462501 0.38116962
0.02016900 -0.09644736 0.38160375
0.02143070 -0.13626957 0.37325507
-0.01615433 -0.00793204 0.44491225
0.07621183 -0.09773160 0.39575201
-0.00852164 -0.00327931 0.42820522
0.11452314 -0.09989212 0.41790465
0.01471248 -0.13076943 0.38099509
-0.01328509 -0.03665289 0.43512323
0.08835272 -0.08038490 0.41196057
-0.00931737 -0.09021889 0.42346826
0.03172259 -0.04723299 0.40099901
0.09450150 -0.18313587 0.35807565
0.05942864 -0.02452663 0.42217332
0.06296146 -0.08466509 0.39691487
0.01851098 -0.15588734 0.37489671
0.06292693 -0.13957173 0.37210429
0.06963242 -0.00118150 0.43686345
0.08298101 -0.06523480 0.41700622
0.05216582 -0.17596199 0.35098481
0.10961003 -0.23424017 0.35555851
-0.00014796 -0.13482153 0.40568635
0.00022663 -0.05565796 0.41313404
0.04073343 -0.06789786 0.39662957
-0.00371900 -0.00187270 0.41885564
-0.00619107 -0.00774392 0.42159748
0.04342045 -0.16905536 0.35229874
0.05869805 -0.05951869 0.40625668
-0.00951646 -0.01059083 0.42617524
0.01346266 -0.16985184 0.38430196
0.05191380 -0.13087980 0.37028602
0.10979991 -0.14867479 0.39112312
0.04060206 -0.05299336 0.40219384
0.05851860 -0.00963636 0.42763570
0.01268357 -0.21592009 0.37554190
0.00330392 -0.01615670 0.41564295
0.03438554 -0.08439064 0.38646135
0.03745352 -0.23240638 0.36899149
0.01367258 -0.15569787 0.38503212
0.02670339 0.00586674 0.41742224
0.05528205 -0.02016450 0.42168936
0.02164794 0.00680774 0.41857344
0.03867041 -0.18015403 0.35081962
-0.02019910 -0.03688276 0.45289409
0.10190103 -0.10634615 0.40445009
-0.00968250 -0.06059434 0.42829436
0.05973408 -0.07065678 0.40218985
0.02733120 -0.08169009 0.38679078
0.03277690 -0.16148992 0.35937241
0.00111593 -0.05137191 0.41290507
-0.00320171 -0.03672107 0.41882685
-0.00847375 -0.02633231 0.42826027
0.03075575 -0.00800401 0.41726613
0.12232233 -0.16213356 0.39025444
0.00284933 -0.15500930 0.40101758
0.05601221 -0.16220450 0.36079106
0.08046848 -0.05265861 0.42194977
0.04683749 -0.10660455 0.38038808
0.01332858 -0.02352316 0.40830272
0.05425485 -0.04055849 0.41169196
0.10062903 -0.18678489 0.35450518
0.01714985 -0.10129341 0.38321403
0.08330183 -0.18286447 0.36554950
0.09391074 -0.10052265 0.40283144
0.10556234 -0.12853225 0.39761242
0.00959940 -0.03358684 0.40711784
0.05281287 -0.23151708 0.37006265
0.11535130 -0.09307556 0.42306298
0.00086030 -0.11632179 0.40320417
0.07296843 -0.24769112 0.36827502
0.06800384 -0.02589934 0.42772624
0.06691734 -0.16570428 0.36378849
0.01676153 -0.03605239 0.40404800
0.02880839 -0.17796338 0.35853729
0.04439388 -0.14469615 0.36291119
0.07820877 0.00259619 0.44267917
0.02490968 -0.18347785 0.36481023
0.07283285 -0.13039151 0.37867671
0.01095559 -0.07549399 0.39682305
-0.00300077 -0.08103979 0.41520908
0.10169710 -0.09289983 0.41102016
0.00881586 -0.16371967 0.38672912
0.08793318 -0.11632285 0.39318955
0.03714452 -0.05650350 0.39964867
0.04719561 -0.00125641 0.42435551
0.01550117 -0.06155627 0.38526851
0.06256512 -0.02036946 0.42695364
0.02660916 -0.05565624 0.39674211
-0.01499177 -0.05119195 0.43956158
0.01902590 -0.14116091 0.37542114
0.06137829 -0.09275912 0.39187604
0.07620458 -0.13399817 0.38006300
0.08665348 -0.05129940 0.42574379
-0.01687219 -0.02580248 0.44384167
0.04891108 -0.12454613 0.37204009
0.08375147 -0.12955621 0.38662133
0.01488488 -0.16668007 0.38179487
-0.00001720 -0.06607979 0.41325083
0.01295655 -0.13671409 0.38379782
-0.01084381 -0.06679757 0.42935437
0.05514236 -0.14648506 0.36677203
0.09653698 -0.13202703 0.39157742
0.03744911 -0.07082742 0.39375228
0.07916385 -0.13040334 0.38305056
0.03434067 -0.12706529 0.36737648
0.00449253 -0.15130708 0.39927533
0.03903243 -0.12424628 0.36873409
0.05924394 -0.04611646 0.41142949
0.00852853 -0.04223016 0.40569034
0.11764225 -0.13502350 0.40000260
0.10000437 -0.08170444 0.41630527
0.10451061 -0.19214712 0.35317171
0.06673168 -0.01358809 0.43171877
0.07847953 -0.06090541 0.41720599
0.03700854 -0.06664948 0.39576694
0.09308812 -0.25012946 0.36561400
0.04021357 -0.08789888 0.38677764
0.06729619 -0.24098618 0.36569902
0.10040349 -0.10220756 0.40549102
0.02813376 -0.13903877 0.36729136
0.09513277 -0.12782943 0.39240029
0.06299799 -0.12012765 0.37832019
0.00412218 -0.19517389 0.37661994
0.06240075 -0.17021923 0.35810879
-0.00359187 -0.08801612 0.41270936
0.03159055 -0.16651750 0.35846600
0.09749416 -0.24169751 0.35770288
0.05636782 -0.17122222 0.35503319
