0.0765179 -0.106463 0.387702
0.0839927 -0.0898462 0.407075
0.0147136 -0.16693 0.381293
0.112735 -0.237667 0.354786
-0.0124536 -0.0561731 0.418555
-0.0190978 -0.0219147 0.44998
0.124763 -0.160515 0.395761
0.0821572 -0.0209747 0.437459
0.0924853 -0.0368977 0.435128
0.0204144 -0.181573 0.37426
-0.0119404 -0.0480574 0.429827
0.0229503 -0.0720417 0.390516
0.127062 -0.22018 0.356621
0.0940289 -0.141686 0.386179
0.076872 -0.0365614 0.427852
0.0325177 0.0104372 0.428012
0.00982158 -0.127346 0.392671
0.0133468 -0.196435 0.359745
-0.0179427 -0.0161186 0.42731
0.115457 -0.154266 0.39333
-0.00171447 -0.101561 0.410738
0.0183931 -0.13629 0.375649
0.0932535 -0.146286 0.383743
0.0149056 -0.0807909 0.393214
0.0662494 -0.241295 0.360047
0.0878016 -0.0598342 0.422318
0.0266391 -0.194561 0.371531
-0.014861 -0.00701641 0.444772
0.0132117 -0.136736 0.384216
0.00189222 -0.145714 0.403242
0.0702972 -0.180738 0.359823
0.0713547 -0.167063 0.363868
0.0975971 -0.249812 0.363621
0.0623818 0.00362205 0.435303
0.0820464 -0.232495 0.360129
0.0368763 -0.141256 0.362743
0.0416229 -0.234758 0.364156
0.0948182 -0.232783 0.3589
0.0931193 -0.233549 0.357018
-0.018585 -0.0304152 0.447976
0.0721597 -0.132706 0.37563
0.00561862 -0.121321 0.399045
0.107332 -0.240964 0.358496
0.103558 -0.139747 0.393488
0.0467251 -0.171309 0.351357
0.0278775 -0.0162035 0.413045
0.0927908 -0.0160727 0.443366
0.0468396 -0.230688 0.370775
0.0129417 -0.0569612 0.378408
0.0793036 0.00672839 0.440874
0.00380336 -0.110662 0.400682
0.00742084 -0.0762461 0.39912
0.0689365 -0.0607037 0.412338
0.0935803 -0.24703 0.363272
0.111761 -0.123424 0.40162
0.00403313 -0.155324 0.402382
0.00615583 -0.0461941 0.393776
0.00814635 -0.135078 0.39076
0.106831 -0.23741 0.357624
0.103299 -0.187113 0.351727
0.0207879 -0.0537155 0.353737
0.131987 -0.225965 0.356446
-0.0159126 -0.0706457 0.44417
0.0878055 -0.0314045 0.434276
0.0257077 -0.179872 0.362124
0.0500234 -0.245325 0.373918
0.0525816 -0.121249 0.374044
0.073422 -0.213623 0.427742
0.09648 -0.156215 0.383584
0.0517624 -0.227087 0.368036
0.107046 -0.111721 0.404407
0.062681 -0.026504 0.423996
0.000944106 -0.0863544 0.409724
0.0339491 -0.163261 0.356751
-0.0142639 -0.0207194 0.443571
0.07842 -0.241131 0.361226
0.0173063 -0.0512322 0.398323
0.0913257 -0.234858 0.356181
-0.000672048 -0.0364205 0.415998
0.118289 -0.230815 0.35585
0.110231 -0.0949129 0.413803
-0.00139343 0.00142531 0.409131
0.0376215 0.00307182 0.42321
0.00631184 -0.19521 0.3779
0.00356455 -0.0413472 0.411292
0.0194979 -0.0866102 0.386123
0.0524077 -0.0314627 0.414867
0.0181601 -0.186731 0.378775
0.0363424 -0.0971245 0.380459
0.0570375 -0.0408569 0.412983
0.0757289 -0.131239 0.380313
0.082229 -0.0331313 0.430124
0.0236781 0.00464511 0.428387
0.00648059 -0.0666013 0.403672
0.0667844 -0.106733 0.384957
0.10668 -0.15684 0.384775
-0.00952541 -0.0666997 0.417805
0.0224477 -0.221046 0.373271
0.0838317 -0.18947 0.37877
-0.00368689 -0.0664336 0.419874
0.0809945 -0.0525738 0.421812
-0.0165615 -0.0260017 0.444816
0.0142487 -0.151765 0.371581
0.0976286 -0.241418 0.35973
0.0239004 -0.155867 0.365915
0.124245 -0.236677 0.354122
0.0880683 -0.175118 0.356631
0.118332 -0.122364 0.418672
0.0721735 -0.11012 0.387992
0.0977354 -0.0176233 0.44585
0.0178033 -0.0101224 0.412647
0.0966222 -0.0333092 0.437932
0.0256314 -0.14147 0.35263
0.0473512 -0.0768648 0.394667
0.0102509 -0.111326 0.388812
0.0059223 -0.169933 0.394331
-0.00641978 -0.0312019 0.424883
0.0125593 -0.211543 0.37431
0.0298595 -0.223122 0.361194
0.0860985 -0.241098 0.353168
0.0728621 -0.130797 0.3791
0.0762247 -0.0685266 0.410544
-0.0190132 -0.0558051 0.450474
0.0774129 -0.0663152 0.414872
0.127334 -0.23699 0.356395
0.00759572 -0.026528 0.409867
-0.0169022 -0.04118 0.42832
0.0374992 -0.010959 0.418377
0.0693898 -0.0420469 0.422356
-0.012853 -0.00558128 0.439432
0.00783374 -0.121304 0.394923
0.107191 -0.24351 0.363535
0.0306802 -0.114313 0.372021
0.056494 -0.151451 0.365926
0.0568978 -0.110076 0.382089
-0.00680066 -0.092951 0.423083
-0.0130002 -0.0510651 0.439715
0.00440141 -0.158465 0.391902
0.102915 -0.234585 0.347618
0.0413546 -0.0568289 0.400475
0.011823 -0.0909427 0.38897
0.00234912 -0.101445 0.404376
0.0786428 -0.000701508 0.442514
0.0973155 -0.140097 0.388926
0.0162416 -0.165816 0.380059
0.0374798 -0.190439 0.355179
0.119463 -0.245336 0.359863
0.0173421 -0.0122668 0.41078
0.0741379 -0.125448 0.382654
0.0823154 -0.0468023 0.42475
0.0712904 -0.175461 0.35603
-0.00830953 -0.0879539 0.409874
0.011405 -0.225758 0.381283
-0.00794078 -0.0884121 0.406358
0.0950527 -0.183116 0.358347
0.0123071 -0.0664814 0.398494
0.106353 -0.250679 0.363614
0.0652626 -0.155345 0.369464
0.0624752 -0.155767 0.368203
0.100779 -0.250376 0.36335
0.00515532 -0.151531 0.38998
0.0949156 -0.117143 0.395899
0.0331237 -0.0204023 0.412683
0.0323516 -0.0222215 0.411235
0.0175574 -0.15145 0.380252
-0.00229802 -0.119906 0.405274
0.0830685 -0.245681 0.364109
0.0426299 -0.165825 0.353118
0.0521639 -0.0615947 0.403426
0.0758839 -0.24703 0.367919
0.0422638 -0.126278 0.368884
0.012611 -0.121008 0.383679
0.102226 -0.0903863 0.413383
0.0909787 -0.187182 0.363957
0.0520755 -0.0667698 0.40099
0.0920851 -0.116537 0.395026
0.0920378 -0.184579 0.35998
0.0573947 -0.232302 0.364845
0.00295088 -0.0511276 0.411085
0.0427412 -0.116732 0.373179
0.084011 -0.175277 0.361709
0.0143927 -0.174977 0.378475
0.0920638 -0.0328905 0.435702
0.081071 -0.101847 0.394802
0.0630126 -0.0239408 0.427653
0.0541809 -0.228007 0.374093
0.0023242 -0.11772 0.401084
0.0836921 0.00730033 0.422444
0.0339097 -0.0108526 0.417068
-0.00414695 -0.105314 0.41417
0.0699216 -0.124914 0.376722
0.0468117 -0.235573 0.369771
0.00491594 -0.0422315 0.393476
0.047068 -0.151654 0.359665
-0.00152064 -0.0615478 0.416256
0.0629958 -0.244383 0.368778
0.125141 -0.177347 0.389296
0.0915438 -0.232463 0.356131
-0.00264832 -0.115314 0.409462
0.0468522 -0.0460426 0.405973
-0.0173985 -0.0502021 0.444379
0.037553 -0.0363238 0.408249
0.0107384 -0.160705 0.387889
0.00183946 -0.00631553 0.415698
0.0288521 -0.136991 0.366276
0.106142 -0.117327 0.401198
0.0520459 -0.0565558 0.40548
0.00874486 -0.105876 0.39082
0.115868 -0.107945 0.415482
0.0330413 -0.22513 0.370565
0.0319846 0.00258689 0.420751
0.0874747 -0.233042 0.358245
0.0418301 -0.23254 0.373375
0.0275227 -0.0866319 0.384242
0.0166392 -0.229975 0.376445
0.125559 -0.167573 0.392866
0.0112287 0.00780422 0.409739
-0.010121 -0.077066 0.40813
0.0128495 -0.106058 0.386025
0.121323 -0.180214 0.376153
0.0618411 -0.184261 0.362412
0.0628089 -0.0118129 0.429964
-0.00167363 -0.0114685 0.420756
0.0976509 -0.071352 0.419776
-0.00160082 -0.0664178 0.415904
0.0485497 -0.175782 0.345832
0.00128826 -0.137583 0.395002
0.0934785 -0.0451756 0.433799
0.00771585 -0.0514838 0.392808
0.071417 -0.233342 0.364148
0.056219 -0.0874005 0.391342
0.0665275 0.00380208 0.435554
0.0374651 -0.151435 0.360198
0.0175229 -0.0268401 0.407662
0.00673074 -0.160574 0.393463
0.0288208 0.00848939 0.423281
-0.0167205 -0.0358677 0.435853
0.000303026 -0.077175 0.412448
0.0430076 -0.00129879 0.42356
0.10182 -0.0560641 0.433101
0.0717391 -0.0700717 0.409687
0.0440216 -0.144682 0.363342
0.0520538 -0.10167 0.385297
0.00817894 -0.0704023 0.386626
-0.00600851 -0.00234633 0.416636
0.0568058 0.00741345 0.439034
0.120856 -0.230737 0.362066
-0.00706653 -0.0864812 0.419126
0.0178222 -0.106878 0.38128
0.117086 -0.180137 0.37718
0.0826683 -0.126634 0.388421
0.006952 -0.0615255 0.403824
-0.00276532 -0.106122 0.409132
0.033898 -0.176177 0.350823
0.00145246 -0.0120304 0.417534
0.0571801 -0.106603 0.384018
0.0729349 -0.00757679 0.437564
0.101056 -0.0816195 0.416244
0.0663935 -0.23648 0.354561
0.0712863 -0.0116213 0.436113
0.00402955 -0.0366392 0.410941
-0.00613016 -0.0618058 0.425836
0.024929 -0.215001 0.369941
0.0128442 0.00361553 0.414756
0.110959 -0.224894 0.355731
-0.0178941 -0.0112419 0.442598
0.0326853 -0.0059601 0.419421
-0.0160716 -0.0480166 0.434389
0.103269 -0.0747698 0.422678
0.0578183 -0.111762 0.380784
-0.0131306 -0.0521318 0.434786
0.00276301 -0.156035 0.394286
0.0291337 -0.166598 0.360646
-0.0131997 -0.075313 0.421666
-0.00498406 0.00360762 0.435018
0.0763967 -0.217253 0.436507
0.0322771 -0.0811731 0.388516
0.0570479 -0.156497 0.36493
0.0861597 -0.0363066 0.430826
0.0983181 -0.0806633 0.41731
0.00179355 -0.116106 0.404086
0.00177057 0.00150767 0.409278
-0.00580231 -0.0274302 0.421271
0.00798489 0.0105025 0.427202
-0.00869212 -0.0817209 0.411886
0.0022586 -0.141512 0.402661
0.00826546 0.00699323 0.410934
0.0871893 -0.240359 0.35976
0.0375417 -0.146185 0.361199
0.00199877 -0.164075 0.403262
-0.00300787 -0.0312111 0.420503
0.0788858 -0.0816999 0.40707
0.046435 -0.184446 0.35383
0.0183695 -0.176051 0.375365
0.0838163 -0.0819759 0.409435
0.0808232 -0.0822103 0.405046
0.0330806 -0.131597 0.365706
0.0519739 -0.0212511 0.419531
0.0193781 -0.0973921 0.381387
0.00276752 -0.171304 0.374797
0.00860819 -0.211504 0.379328
0.00698498 -0.0303005 0.396575
0.0536065 -0.129135 0.372128
0.0166145 -0.0260908 0.406866
0.0417761 -0.107755 0.376513
-0.0133309 -0.00109983 0.444136
0.0323263 -0.126082 0.368487
0.11844 -0.129062 0.413217
0.0142774 -0.177954 0.353284
0.0832192 -0.101208 0.398059
0.0175941 -0.0413813 0.40123
0.0173099 -0.18128 0.379287
0.018624 -0.056315 0.396177
0.0743493 -0.251737 0.372767
0.08738 -0.00657098 0.44481
0.100816 -0.0564837 0.430944
0.0126715 -0.111037 0.385189
0.021126 -0.190382 0.37436
0.0587634 -0.0598409 0.407037
0.0917788 -0.0256975 0.43926
0.0827233 -0.116383 0.38979
0.0573834 -0.0423171 0.410924
0.113835 -0.17198 0.379866
-0.00673239 -0.00606226 0.424519
0.0767132 -0.0231289 0.43181
0.0277895 -0.0173961 0.411574
0.0163999 -0.12616 0.378741
0.0584043 -0.025325 0.424182
0.0145365 -0.126786 0.381186
0.0274105 -0.0314705 0.405248
0.0804021 -0.221728 0.439937
0.0429109 -0.185695 0.353949
0.0423739 -0.131305 0.365766
0.0530946 -0.0874485 0.391448
0.0709987 -0.0575963 0.414817
0.0544952 -0.0753602 0.397496
0.0172925 0.00753155 0.419151
0.00694943 -0.166157 0.394991
0.0325734 -0.161435 0.359461
0.0231348 -0.00112383 0.417461
0.0329598 -0.0703792 0.393133
0.103499 -0.117098 0.402664
0.00939533 -0.143407 0.391998
0.0238236 -0.161139 0.365504
0.00716217 -0.0119238 0.414257
0.0909381 -0.0172159 0.440203
0.0325953 -0.180836 0.352401
0.016199 -0.211589 0.374168
0.0395963 -0.236742 0.371723
-0.0104735 -0.00260358 0.438337
0.0428961 -0.105887 0.378807
0.0440186 0.00378056 0.427906
0.0396839 -0.10574 0.377902
0.0121174 -0.170429 0.384403
0.0681586 0.00669586 0.423254
-0.00232256 -0.0260798 0.419667
0.0719429 -0.0616428 0.413744
0.106751 -0.122098 0.400795
0.0618081 -0.151333 0.369177
0.0718837 -0.00598776 0.435753
0.0670928 -0.00139839 0.435593
0.0418292 -0.159927 0.357337
0.0399321 -0.0974176 0.381869
0.0571878 -0.0325507 0.415892
0.0110304 -0.130803 0.38888
0.0275016 -0.0359819 0.40392
0.00771825 -0.115971 0.393492
0.087585 -0.24929 0.365276
-0.00880605 -0.00845449 0.432271
0.107062 -0.126109 0.399545
0.0373234 -0.10098 0.378542
0.0824216 -0.00708438 0.439738
0.0776228 -0.115565 0.388076
0.0193869 -0.151873 0.375308
0.0774827 -0.0021898 0.440495
0.0580259 -0.177267 0.353061
0.0660892 -0.18053 0.359318
0.0141033 -0.219981 0.368029
0.117982 -0.170166 0.382856
0.0919628 -0.25132 0.367952
0.0964027 -0.121899 0.395275
0.0968961 -0.0387674 0.436434
0.0578609 -0.166225 0.359477
0.0564279 -0.0112147 0.426153
0.052348 -0.046085 0.408504
0.0740016 -0.214362 0.435668
0.0976623 -0.037225 0.43769
0.0536431 -0.114969 0.3786
0.0533781 -0.229688 0.369241
0.0967355 -0.0964977 0.405616
0.0518757 -0.050268 0.406571
0.0421113 -0.156225 0.357795
0.0241629 -0.180128 0.36524
-0.00912261 -0.0265455 0.428278
-0.00284453 -0.0417601 0.419546
0.0626066 -0.0616721 0.407317
0.0818579 -0.0676074 0.415623
0.103173 -0.145369 0.388697
-0.00821874 -0.00276636 0.419438
0.0315871 -0.146193 0.364037
-0.0124709 -0.00762072 0.433887
0.0974658 -0.075992 0.41867
0.00861872 -0.221514 0.381983
0.0884758 -0.0366712 0.432642
-0.00394003 -0.0769243 0.418372
0.0596043 -0.0709176 0.402864
0.0213104 -0.111582 0.377946
0.0367804 0.00726422 0.425373
0.0622213 -0.0281967 0.420803
0.0366653 0.011875 0.437541
0.00140202 -0.0938253 0.395732
0.11436 -0.101937 0.42706
0.0921957 -0.0707445 0.417706
-0.00687839 -0.0264233 0.424605
0.00332769 0.00240511 0.414171
0.0729922 -0.232335 0.36105
0.0877218 -0.244548 0.360577
0.111929 -0.156219 0.388084
0.0680368 -0.246557 0.367676
0.00993977 -0.0972459 0.392175
0.08207 -0.237547 0.367169
0.00737952 -0.000989142 0.41499
0.101801 -0.187224 0.353537
0.0729464 -0.126151 0.380605
0.0877785 -0.126501 0.390014
0.0238106 -0.147693 0.358424
-0.00236047 -0.021208 0.420567
0.0768358 0.00709011 0.454943
0.00305547 -0.203914 0.377176
0.0424683 -0.161258 0.355241
-0.00807599 0.000212156 0.435021
0.0478211 -0.070613 0.398069
-0.00152616 -0.0513768 0.416169
0.043293 -0.0311499 0.413193
0.0116206 -0.0662526 0.382334
0.116535 -0.122559 0.412077
0.0570646 -0.236867 0.364483
-0.0193613 -0.0415944 0.449188
0.0622867 -0.131243 0.374535
0.0221164 -0.0564557 0.395922
0.0050964 -0.140832 0.399311
-0.0153762 -0.0438703 0.436972
0.0973048 -0.0915523 0.408714
0.0630889 -0.0354081 0.417821
-0.0120131 -0.065676 0.424426
0.0017786 -0.0717267 0.409436
0.0332707 -0.235089 0.369765
0.102766 -0.100993 0.408085
0.0580048 -0.230889 0.377316
0.0675714 -0.112084 0.381739
0.0560288 -0.0799045 0.397141
0.000647189 -0.0915592 0.409874
0.0961132 -0.196095 0.365766
0.00246572 -0.12203 0.40306
0.0223693 -0.0214436 0.409583
0.0723145 -0.102579 0.390272
0.0294502 -0.168823 0.356505
-0.00257457 -0.0559485 0.419626
0.0176942 -0.00216061 0.415805
0.00266728 -0.136732 0.404136
0.0919885 -0.081404 0.414747
0.059781 -0.247345 0.372293
0.10308 -0.111156 0.403009
0.0222834 0.00344864 0.416253
0.0114933 -0.0611243 0.387537
0.0871093 -0.140726 0.382605
0.0106644 -0.126126 0.390022
0.0832562 0.0062311 0.43039
0.0567692 -0.136827 0.371361
0.0889067 -0.233911 0.368007
0.0421756 -0.0858896 0.387949
0.0126796 -0.20725 0.376154
0.044146 -0.101587 0.382212
-0.0104283 -0.00575915 0.426794
-0.00557826 -0.0423894 0.406138
0.0421173 -0.151445 0.358483
0.0422866 -0.0417665 0.405666
0.0820508 -0.165462 0.362078
0.0118459 -0.0763006 0.394717
0.00284866 -0.0262642 0.414683
-0.0136274 -0.0524575 0.431607
0.116483 -0.087432 0.405546
0.0246206 -0.17117 0.364803
0.0434806 -0.0717307 0.397305
0.0585242 -0.00607997 0.42474
0.0420542 -0.171333 0.350806
0.0114367 -0.211012 0.377565
0.0206393 -0.141036 0.373007
-0.00579661 -0.0563376 0.426113
0.0254382 -0.226853 0.362656
0.0158853 -0.0942281 0.375853
-0.00708385 -0.0860449 0.415501
0.0526664 -0.220134 0.396254
-0.00166069 -0.0717121 0.41642
0.103215 -0.237534 0.357785
0.00684906 -0.0360316 0.40781
0.0819056 -0.239692 0.350261
0.0190242 -0.180466 0.374857
0.112587 -0.14602 0.393984
0.0676985 -0.170685 0.360127
0.0327991 -0.0965811 0.379728
0.048379 -0.170214 0.352579
0.0813389 -0.162322 0.363501
0.0239941 -0.231895 0.369869
0.0326322 -0.0864527 0.384283
0.0923991 -0.236608 0.357847
0.048596 -0.124697 0.372368
0.0970911 -0.131626 0.390927
0.0224083 -0.0319009 0.405035
0.0475841 -0.0205959 0.417465
0.0722701 -0.112213 0.385121
0.0417966 0.00802478 0.419732
0.113592 -0.0952238 0.423599
-0.00257744 -0.00641968 0.420197
0.0675179 -0.166237 0.363965
0.114949 -0.126391 0.406125
0.072907 -0.00114639 0.438495
-0.008298 -0.0122408 0.429844
0.042519 -0.0959352 0.383949
0.0141424 -0.176924 0.384313
0.0439256 0.00802628 0.429574
0.0984486 -0.191561 0.359084
0.0270288 -0.100927 0.378524
0.0509295 -0.0648167 0.402102
0.0250135 -0.0376457 0.40171
0.0129491 -0.131007 0.38408
0.0576945 -0.0306352 0.418026
0.102518 -0.0925548 0.410484
0.0757912 -0.0272457 0.430713
0.0166618 -0.0213173 0.407637
0.0776607 -0.0464622 0.423455
0.0064766 -0.157814 0.383913
0.0220723 -0.121208 0.375016
0.102152 -0.106521 0.405059
0.107019 -0.246096 0.363662
0.016668 -0.1852 0.382282
0.0729737 -0.0862453 0.403285
0.0179972 -0.00690389 0.414373
0.0462064 -0.0866959 0.390507
0.0413906 -0.00300828 0.421441
-0.00640211 -0.101067 0.415815
0.105595 -0.244474 0.349323
0.0820736 -0.0366689 0.429502
0.0369863 -0.0666591 0.396037
0.0776356 -0.245509 0.363668
0.0292974 -0.0565251 0.396666
0.0582119 -0.15105 0.367747
0.0435544 -0.0561032 0.40277
0.00300735 -0.101793 0.40119
0.0121231 -0.0900061 0.39401
0.118298 -0.125325 0.407236
0.0723102 -0.000555745 0.442644
0.00911794 -0.116038 0.391284
0.00819691 -0.205798 0.376839
0.0938427 -0.100125 0.402918
0.0529625 -0.0156469 0.423946
0.0725766 -0.0233421 0.431012
0.072997 -0.0565293 0.418616
0.0371955 -0.229798 0.370335
0.088008 -0.0205226 0.438275
0.03781 -0.0465188 0.404438
0.0787779 -0.0965225 0.398058
0.0270561 0.00818384 0.406449
0.0171396 -0.0316983 0.405435
0.150459 -0.233506 0.358831
0.079378 -0.124793 0.387112
0.0126261 -0.0848789 0.383412
0.118784 -0.206218 0.355708
-0.0167694 -0.012136 0.424931
-0.00267881 -0.120369 0.410314
0.0771252 -0.111616 0.388348
0.0869004 -0.121409 0.390482
0.0821336 -0.0708064 0.413771
-0.0210662 -0.0160344 0.450557
0.023543 -0.0510844 0.397445
0.0975508 -0.241143 0.356593
0.0644185 -0.225877 0.347257
-0.00352625 -0.0515453 0.420519
-0.0119922 -0.071792 0.426409
0.122876 -0.161722 0.384385
0.0709761 0.00818652 0.412995
0.0876736 -0.046161 0.428426
0.0174231 -0.216674 0.37459
0.0496272 -0.227765 0.373768
0.0465928 -0.112212 0.375573
0.0470301 -0.00690835 0.422759
0.010695 -0.101695 0.389501
0.0234542 -0.166441 0.365445
0.00705216 -0.0166813 0.413513
0.0592654 -0.191836 0.360729
0.0721788 -0.170052 0.363548
0.0375527 -0.0563518 0.398984
0.0428335 -0.156976 0.356692
0.0510128 -0.0269834 0.415781
0.0423722 -0.1464 0.361007
0.0628839 -0.0663793 0.405346
0.0217089 -0.0612136 0.393839
0.0920766 -0.0751838 0.41722
0.04714 -0.240213 0.370968
0.0324042 -0.100321 0.377903
0.101142 -0.0663134 0.424476
0.0377093 -0.0210308 0.414953
0.0341094 0.00644653 0.421747
0.0170891 -0.146339 0.379319
0.00382419 -0.0813773 0.40485
0.0426894 -0.0367155 0.408663
0.057398 -0.141076 0.369964
0.0488707 -0.0555848 0.407293
0.0821494 -0.2505 0.368061
0.00412334 -0.0658004 0.406092
0.0596014 -0.228269 0.373952
0.0690959 -0.0207581 0.432667
0.0977762 -0.0658529 0.4236
-0.0219639 -0.0367714 0.454141
-0.0047209 -0.0264853 0.422705
0.00808374 -0.0510145 0.405567
-0.0168757 -0.0276796 0.441408
-0.0129632 -0.0114764 0.412538
0.124492 -0.162406 0.39179
0.00701681 -0.100772 0.39505
0.00839104 -0.206484 0.368806
0.0268693 -0.231868 0.369924
0.0075232 -0.0563219 0.40515
0.0867772 -0.0712796 0.415049
0.0223006 -0.175905 0.369464
-0.020403 -0.0191541 0.434577
-0.0129251 -0.0564389 0.434968
0.0114064 0.00722013 0.41946
-0.0193285 -0.0171335 0.449443
-0.0221997 -0.0401221 0.451638
0.0531333 -0.225027 0.403099
0.0168512 -0.0541031 0.365258
-0.0179661 -0.0165865 0.443807
-0.00690483 -0.021645 0.42525
0.023193 -0.136473 0.370225
0.0871777 -0.245752 0.363659
0.00764556 0.00316332 0.414824
0.0779504 -0.0151662 0.438189
0.0176279 -0.155171 0.366262
0.0327718 -0.0162974 0.414174
0.0723989 0.00635155 0.445181
0.0192492 -0.185401 0.374066
-0.0213424 -0.0381727 0.458746
-0.0207069 -0.0400569 0.453842
0.000341823 -0.177451 0.383402
0.0080641 -0.197495 0.375763
0.064348 -0.239195 0.350347
0.0975247 -0.101394 0.404365
0.0959678 -0.0773159 0.416097
-0.0168527 -0.0426423 0.441613
-0.00348326 -0.130318 0.408176
-0.0191977 -0.0399915 0.456042
0.0669986 -0.162367 0.365924
0.00521253 -0.0605475 0.407058
0.0508393 -0.153237 0.361659
0.0250925 -0.189087 0.365087
-0.018114 -0.0500269 0.435368
0.0666433 -0.232498 0.3654
-0.0179002 -0.0360608 0.444895
-0.000433309 -0.0572356 0.416454
0.00508768 -0.0563043 0.40757
0.0524878 -0.150966 0.363648
-0.0138771 -0.0412701 0.438725
0.0526715 -0.170705 0.353635
0.0518895 -0.111913 0.379443
0.0208627 -0.0716524 0.392141
-0.0124746 -0.0454867 0.435785
0.0521718 -0.106286 0.383377
-0.0121254 -0.0610692 0.434402
0.00764454 -0.0311827 0.408377
-0.0121751 -0.0220013 0.434971
0.00758751 -0.167785 0.379986
0.0477262 -0.131142 0.36851
-0.0119751 -0.0656688 0.43358
0.000191405 -0.0662825 0.413527
0.0422746 0.00702756 0.425527
0.112918 -0.0974657 0.418074
0.0317866 -0.0470405 0.400473
0.0137957 -0.0612865 0.39526
-0.0129691 -0.070202 0.433444
0.031395 0.00808872 0.411035
-0.0114032 -0.0875404 0.424947
-0.00834084 -0.00164816 0.428846
0.0176729 -0.0227867 0.406642
0.00388626 -0.0230166 0.404957
0.0473147 -0.101218 0.383136
0.00444017 -0.153029 0.395449
0.0373634 -0.131 0.364756
0.0392068 -0.141629 0.361641
0.105723 -0.189685 0.350008
0.00220488 -0.140882 0.391033
-0.0175107 -0.0213471 0.44481
0.0313529 -0.166397 0.358941
-0.00271696 -0.00182266 0.419206
0.0217712 -0.0296208 0.407555
0.0470662 -0.126606 0.370469
0.0830879 -0.0165224 0.438051
0.0231259 -0.151191 0.369557
0.103531 -0.104381 0.407159
0.0577169 -0.187003 0.354129
0.0729746 -0.240056 0.361141
0.0279996 -0.00723439 0.416437
0.0243471 -0.0064261 0.417377
0.0737241 -0.121573 0.383325
0.106142 -0.101744 0.409537
0.0445983 -0.109415 0.379496
0.113489 -0.141728 0.397764
0.00930551 -0.120674 0.390916
0.0322391 -0.0115797 0.415674
0.067149 -0.086158 0.39999
0.0873336 -0.05662 0.423916
0.00290878 -0.0961106 0.404348
0.0522662 -0.00311489 0.426004
0.103748 -0.0841199 0.417087
0.0410033 -0.18622 0.357162
0.0799947 -0.222243 0.435919
0.0961877 -0.146585 0.385777
0.0524828 -0.0913967 0.38911
0.100994 -0.18239 0.355582
0.0828067 -0.121392 0.388722
0.0986902 -0.0478201 0.437013
0.0314065 -0.16996 0.357995
0.0564519 -0.0459902 0.410132
0.0954824 -0.244369 0.356583
0.0727845 -0.0909368 0.399048
-0.00702538 -0.0770769 0.427068
0.0526603 0.00782948 0.415096
0.0219819 -0.0813855 0.387747
-0.00598278 -0.0516204 0.424765
-0.0121096 -0.0108604 0.421462
0.0211034 -0.126279 0.372621
0.0082696 -0.126945 0.395241
0.0537648 -0.155823 0.363226
0.0968102 -0.0930348 0.406576
-0.0111306 -0.0669359 0.42976
0.0615092 -0.0367643 0.414927
0.0366488 -0.159994 0.358344
0.0472904 -0.0229072 0.416566
0.0782169 -0.23582 0.360873
-0.00187157 -0.0466527 0.415895
0.105684 -0.108116 0.405762
0.0644973 -0.0563934 0.412172
0.0730199 -0.241461 0.365021
0.0619995 -0.0408754 0.41377
0.0543705 -0.159561 0.363576
-0.0190222 -0.035954 0.450819
0.0571572 -0.00648053 0.429299
0.0403831 -0.167433 0.351862
-0.0152904 -0.00314808 0.448298
0.0542645 -0.174353 0.35375
0.0571202 -0.0713357 0.400591
0.0556717 -0.175656 0.35089
-0.019849 -0.0227173 0.452446
0.047356 -0.0269389 0.415099
0.0974991 -0.245357 0.359766
-0.00637455 -0.0980892 0.418981
-0.0135709 -0.0171192 0.439229
0.0775265 -0.0913934 0.399355
0.0515042 -0.127028 0.371203
0.021135 -0.217857 0.373054
0.00604633 -0.185327 0.373132
-0.00796682 -0.0608657 0.429793
0.0881755 -0.135147 0.387652
0.0471278 0.00479776 0.42819
0.0615691 -0.236336 0.365301
-0.0155791 -0.0548791 0.441748
0.122821 -0.241948 0.356662
0.00596455 -0.150943 0.397439
0.0470907 -0.00174211 0.425156
0.0488464 -0.0857864 0.392332
0.0731877 -0.246081 0.365288
0.0766236 -0.175923 0.3606
0.032413 -0.00197916 0.421019
0.0772222 -0.0865685 0.404017
0.0011993 -0.0207164 0.417725
-0.0071375 -0.0663363 0.425338
0.11382 -0.0795783 0.42029
0.00389069 -0.17137 0.399403
-9.89143e-05 -0.000192726 0.40797
0.112086 -0.151961 0.390565
0.0621102 -0.106098 0.384281
0.123671 -0.239878 0.351119
-0.010863 -0.070465 0.429563
0.0277693 -0.0216188 0.410697
0.016869 -0.131628 0.378919
0.0233628 -0.0804989 0.386733
0.0829669 -0.135485 0.382603
-0.00845255 -0.0767718 0.424611
0.102202 -0.232964 0.356629
0.0620732 -0.161265 0.365126
0.0146636 -0.121411 0.3801
0.0928218 -0.106774 0.399461
0.00436491 -0.190493 0.376267
0.0584697 -0.0164299 0.421136
0.0620761 -0.157285 0.366711
0.113102 -0.162582 0.386312
0.0694829 0.00874328 0.444739
0.0812474 -0.00332553 0.441428
0.0232433 -0.146013 0.370754
0.0777659 -0.017279 0.435852
0.0660711 -0.0376918 0.415675
0.0624375 -0.111521 0.382812
0.048259 0.00787592 0.415845
0.0106987 -0.116942 0.388467
0.0137421 -0.151099 0.385741
0.0384411 -0.167794 0.351991
0.0893341 -0.190193 0.366312
0.0618735 -0.0870014 0.395275
0.0823923 -0.236562 0.363253
0.0476455 -0.146313 0.363328
0.0275112 -0.0964732 0.379959
0.114344 -0.115499 0.406284
0.0148805 -0.20725 0.373755
0.101654 -0.0769837 0.419509
0.0672971 -0.0915904 0.394393
0.0756336 -0.0826319 0.401066
0.0770036 -0.241381 0.363186
0.0923604 -0.0413101 0.433527
0.10808 -0.14416 0.393263
0.0667382 -0.236123 0.367685
0.0418873 -0.0325993 0.411032
0.0626307 -0.170093 0.358513
0.102259 -0.0806015 0.418845
0.0915316 -0.150392 0.381247
0.0237845 -0.126066 0.370869
-0.0159292 -0.0317965 0.441146
0.012207 -0.0169483 0.410196
0.00832038 -0.216531 0.37986
0.00209192 -0.0360832 0.413574
0.0555763 0.00185341 0.43199
0.0624446 -0.18124 0.354365
0.0632689 -0.176832 0.353277
-0.00347529 -0.0607991 0.420675
0.0915505 -0.0472198 0.430432
0.0879118 0.00713464 0.44865
0.0373185 -0.0707221 0.393828
-0.0106816 -0.0824649 0.428304
0.0623847 -0.016593 0.42862
0.0422201 -0.135909 0.363441
0.0745179 0.00734041 0.44952
0.00192456 -0.131405 0.4047
0.110407 -0.16769 0.37986
0.0716014 -0.0178077 0.43136
0.118214 -0.129278 0.401761
0.0179041 -0.189868 0.378796
0.0631866 -0.120337 0.378231
0.0278889 -0.171352 0.359939
0.112417 -0.255102 0.366383
0.0377883 -0.110331 0.373213
0.0266406 -0.141311 0.368836
0.0722761 -0.0210657 0.43297
0.0373806 -0.0914005 0.384001
0.047111 -0.066376 0.400547
-0.00756577 -0.0119946 0.425083
0.0821999 -0.180635 0.363948
0.12483 -0.168254 0.384655
0.0577214 -0.076374 0.398675
0.0502673 0.00836563 0.423635
0.0617924 -0.0517302 0.40973
0.0274941 -0.0112655 0.414904
0.0329291 -0.041709 0.403634
0.0873139 -0.0421692 0.430837
-0.0109031 -0.0259468 0.43182
0.00183783 -0.000697156 0.415206
0.0335354 -0.112754 0.37115
0.0140369 -0.2174 0.365475
0.0268121 -0.176244 0.359832
0.081098 -0.0427024 0.426208
0.0896038 0.00882217 0.419911
0.0220358 -0.0663553 0.392769
0.0817066 -0.0180271 0.436535
0.0161962 -0.177218 0.382189
-0.00686042 -0.001885 0.424592
0.0335142 -0.146451 0.361714
0.003366 -0.0320136 0.411248
0.101432 -0.0609105 0.428335
0.0923393 -0.0519226 0.42892
0.0569953 -0.0915911 0.390081
0.0573173 -0.0364776 0.41467
0.0856736 -0.0477279 0.425983
0.0620263 -0.00319578 0.429358
0.0920662 -0.0300845 0.438459
0.0122113 -0.067553 0.390914
0.0544139 -0.0126173 0.427328
0.0622676 -0.0764783 0.400215
-0.00372786 -0.00541945 0.410972
0.0113736 -0.15157 0.389644
0.0377844 -0.031306 0.410082
0.0373975 -0.136453 0.363485
0.135822 -0.232929 0.358065
0.00238588 -0.00608547 0.418429
0.102213 -0.190853 0.353502
0.0718744 -0.0470671 0.420238
0.0615924 -0.167566 0.361091
0.0470468 -0.0613349 0.402987
0.0866861 -0.0330807 0.431347
0.00639507 -0.136327 0.398303
0.0218184 -0.110884 0.362032
0.0267826 -0.061384 0.394497
0.0845702 0.00575595 0.441125
0.0203146 -0.129492 0.360591
0.0777988 -0.051401 0.420813
0.00950232 -0.132036 0.390853
0.111286 -0.131817 0.39988
0.0157722 -0.210879 0.377281
0.0608163 -0.242496 0.364308
0.0113403 -0.0964476 0.388494
0.0669642 0.00364859 0.439395
0.107617 -0.141199 0.394167
0.0806432 -0.256166 0.373703
0.012577 -0.0412698 0.403824
0.0788544 -0.139882 0.379624
0.0927018 -0.0868044 0.410037
0.0821505 -0.0304258 0.433167
0.00252062 -0.181119 0.384493
0.0919553 -0.0964777 0.404624
0.0569225 -0.096651 0.388633
0.00740935 -0.159698 0.385312
0.0930402 -0.0345111 0.437242
0.0324721 -0.106547 0.374402
0.0726642 -0.0816544 0.403016
0.0731047 -0.0368874 0.427403
0.0523956 -0.0961301 0.38808
0.0518624 -0.166954 0.35548
9.77576e-05 0.00682222 0.434166
0.0316307 -0.15617 0.362902
0.00997969 -0.0606719 0.402205
-0.0171388 -0.0458006 0.445349
-0.0157715 -0.00977986 0.435931
0.0274812 -0.15183 0.365196
0.00873365 -0.0778875 0.396222
0.053301 -0.164671 0.357825
0.0718257 -0.0372556 0.424739
0.0208702 -0.16083 0.372313
0.00927082 -0.141554 0.379006
0.0676495 -0.0167838 0.433639
0.122624 -0.23718 0.351644
0.114644 -0.10329 0.423445
0.00543062 -0.111458 0.398845
0.00115123 -0.076518 0.40975
-0.0074964 -0.101049 0.42248
0.0788483 -0.121814 0.38862
0.0119243 -0.21039 0.367769
0.0286324 -0.222909 0.373265
0.0690958 -0.120531 0.380303
0.014875 -0.225234 0.378084
0.0225221 -0.190252 0.370617
0.0881777 -0.189562 0.368978
0.0795681 -0.219309 0.436767
0.0720714 -0.106444 0.388943
0.0775657 0.00411034 0.444296
0.0862732 -0.0879912 0.405684
0.0781417 -0.0480081 0.421446
0.0889568 -0.00524162 0.448059
0.0887969 -0.0768203 0.417216
0.00603818 -0.0517366 0.408178
0.0469685 -0.0511479 0.405629
0.0783617 -0.17586 0.362762
0.0838447 -0.0561918 0.422639
0.051764 0.00323316 0.424833
0.0673085 -0.013557 0.431151
0.0917424 -0.181635 0.35886
0.0719919 -0.0269743 0.429744
0.081975 -0.0866872 0.405325
-0.0204277 -0.0175088 0.434439
0.0386066 -0.0505575 0.403308
0.0761559 0.00722546 0.448369
0.0822774 0.00759317 0.444312
0.00751695 -0.111805 0.394192
0.0684983 -0.0647941 0.412413
0.0220456 -0.0910058 0.383432
0.00772679 -0.0963942 0.39471
0.00334055 -0.185032 0.383928
0.0221344 -0.181101 0.368941
0.0194983 -0.156299 0.37528
0.0421461 -0.0462047 0.406281
0.0654492 0.00721142 0.434774
0.0680351 -0.241023 0.36329
0.0675727 -0.236602 0.36495
0.107228 -0.146784 0.389957
0.12287 -0.15853 0.387556
0.0588709 -0.0466034 0.412588
0.0325068 -0.171467 0.354966
-0.00811727 -0.0905786 0.420358
0.117842 -0.119656 0.403967
0.0014711 -0.106705 0.404367
0.108121 -0.198956 0.353134
0.00822677 -0.18966 0.370843
0.0253552 -0.082499 0.387596
0.00874889 -0.0816178 0.395856
0.0474463 -0.156132 0.358595
0.0918689 -0.0287055 0.436308
0.042029 -0.0715387 0.394109
0.0192291 -0.121481 0.37635
0.0268028 -0.0514873 0.397501
0.0835979 -0.243558 0.355634
0.0097822 -0.188877 0.364449
0.0292622 -0.0403286 0.403691
0.0467051 0.00847795 0.434427
-0.00322772 -0.0717411 0.418427
0.0621115 -0.0813677 0.396447
0.00406171 -0.166869 0.385838
0.0172228 -0.0715785 0.393144
0.0625078 -0.0063263 0.433319
0.0815998 -0.0572139 0.419729
0.10685 -0.143288 0.390902
0.0796813 -0.18072 0.363226
0.0529582 -0.0814026 0.395021
0.0463995 -0.123106 0.371801
0.0644595 -0.0521189 0.413053
0.0219316 -0.0264246 0.408481
0.0115047 -0.146174 0.38946
0.0439634 -0.0618255 0.402616
0.0863898 0.00332804 0.448227
0.0724846 0.004964 0.429015
0.00865357 -0.110501 0.391734
0.0831633 0.00959648 0.448626
0.127067 -0.211966 0.35449
0.0907315 0.00276044 0.452832
-0.0212945 -0.0215085 0.445207
0.0188918 -0.130244 0.375658
0.0780815 -0.0385974 0.426369
0.0262623 -0.178923 0.359469
0.0773689 -0.0109119 0.438316
0.0820461 0.0038625 0.445144
0.0193629 -0.071633 0.391143
0.0620508 -0.0813439 0.398048
0.0875249 -0.145657 0.380485
0.0662966 -0.0616016 0.40962
0.0681359 -0.0864367 0.402574
0.0695621 -0.2505 0.370748
0.0874531 -0.101692 0.399652
0.023156 -0.14116 0.370698
0.0973114 0.00352397 0.457373
0.0722788 0.00660494 0.440314
-0.00176981 -0.106734 0.40629
-0.0193334 -0.0382295 0.456979
0.0718943 -0.0332208 0.426091
0.0326497 -0.156074 0.361
0.0123281 -0.0275048 0.406977
0.0365598 -0.171732 0.35291
0.0389947 -0.124212 0.368356
0.0279267 -0.161456 0.361016
0.0999325 -0.123748 0.39694
-0.00711752 -0.0811969 0.419607
0.0222218 -0.116271 0.375981
0.119944 -0.245647 0.356348
0.0730078 -0.0749627 0.409302
0.0374313 -0.121353 0.368379
0.00293275 -0.151822 0.403102
0.0192729 -0.0765132 0.391572
0.0326613 -0.121253 0.368639
0.0207799 -0.0619995 0.391334
0.103023 -0.241623 0.35818
-0.00164102 -0.0764215 0.414891
0.0125209 -0.161708 0.385284
0.0321852 -0.0512447 0.398833
0.0332226 -0.151052 0.361164
0.119277 -0.139063 0.40128
0.0122795 -0.0261926 0.408233
0.0787876 -0.0298653 0.432264
0.0991291 -0.107168 0.403406
-0.00419857 -0.111086 0.413738
0.0188833 -0.161397 0.375778
0.0317175 -0.0623578 0.395819
0.0277915 -0.12614 0.369309
0.062878 -0.0709458 0.404076
0.0222089 -0.0463051 0.398738
0.0882428 -0.0400675 0.432551
0.00661928 -0.155669 0.389955
0.0319022 -0.111165 0.373255
-0.0105197 -0.0764001 0.429607
0.0425316 -0.110891 0.374391
-0.00171882 -0.125683 0.404588
0.0833276 -0.171363 0.360677
0.0397097 0.00902941 0.433857
0.0876261 -0.116389 0.393664
0.027026 -0.0467449 0.399097
0.0474658 -0.0318093 0.413724
0.0322723 -0.0663288 0.395088
0.0138537 -0.146212 0.384266
0.0772882 -0.10281 0.39018
0.110472 -0.0764557 0.439563
0.026899 -0.116482 0.373823
0.031529 -0.0726027 0.391163
0.0220027 -0.00251923 0.416069
0.0586845 0.00589573 0.452283
0.126231 -0.17246 0.391442
0.127229 -0.240442 0.354444
0.0488256 -0.105416 0.38289
0.0773827 -0.0707702 0.412719
0.121267 -0.177826 0.380239
0.0212538 -0.166098 0.369244
0.0137295 -0.050765 0.399929
0.0929906 -0.121616 0.393935
0.0101289 -0.115682 0.374496
-0.00908727 -0.0869647 0.423855
0.00787982 -0.140896 0.394673
0.101867 -0.115956 0.400169
0.122034 -0.229912 0.357577
0.0826261 -0.0263948 0.434797
0.0218201 -0.161365 0.369597
0.120983 -0.149123 0.394776
0.102248 -0.121186 0.399747
0.0824414 -0.0121237 0.439037
0.0924303 -0.0216028 0.44066
0.0222641 -0.15581 0.36987
-0.0125316 -0.0316398 0.43467
0.0221705 -0.106514 0.379124
0.0619378 -0.117517 0.380135
0.0866333 -0.0019406 0.445864
0.0478048 -0.0468889 0.407386
0.0135545 -0.055867 0.399487
0.0920683 -0.0764037 0.416302
0.10248 -0.0630887 0.425746
0.00249619 -0.0312736 0.413718
0.0623112 -0.0457855 0.413523
0.0219621 -0.0416183 0.399946
0.0175095 0.00673289 0.414347
0.0868063 -0.0824056 0.410667
0.0524674 -0.0767631 0.39577
0.032394 -0.0763676 0.389625
0.0579403 -0.160843 0.363287
0.0155476 -0.156671 0.383159
0.017131 -0.106218 0.383233
0.0969846 -0.0817733 0.415561
0.0166748 -0.0896707 0.387648
0.027247 -0.0756833 0.387832
0.103855 -0.13082 0.397057
0.00833498 -0.0862438 0.395523
0.0170498 -0.120925 0.378201
0.0926644 -0.249919 0.364919
0.0110619 -0.216132 0.379625
0.0163375 -0.135631 0.378812
0.0664298 -0.00677162 0.435126
0.0864018 -0.111576 0.394264
-0.0166791 -0.0489668 0.422264
0.0528262 -0.212254 0.385356
0.0474336 -0.0370344 0.410217
0.00574232 -0.0465166 0.408324
0.0790484 -0.134346 0.38265
0.0698138 0.00637222 0.435313
0.0660489 -0.040922 0.414996
0.0440624 -0.179369 0.34839
0.000172364 -0.0801403 0.412175
0.0687273 -0.0565662 0.414714
0.0672355 -0.0814972 0.399703
0.107916 -0.0807433 0.425112
0.102056 -0.112002 0.401367
0.0575576 -0.0661541 0.403106
0.0584143 -0.179751 0.354041
0.0324707 -0.136373 0.365269
0.113534 -0.240042 0.358435
0.0171287 -0.220102 0.37448
0.0134253 -0.0127741 0.411057
-0.00121206 -0.0817991 0.411134
-0.000359464 -0.146366 0.400856
0.0629473 -0.140133 0.373121
0.0988256 -0.0299154 0.442377
0.012606 -0.00180984 0.415142
-0.0044734 -0.0913758 0.418579
0.0618999 -0.0922731 0.391167
0.0105924 -0.121219 0.389292
0.0820936 -0.131405 0.385328
0.107936 -0.131248 0.398254
-0.00473827 -0.0214254 0.423368
0.0698227 -0.163764 0.364886
0.0086724 -0.0675047 0.400283
0.0732814 -0.23727 0.352256
0.0589566 -0.0345175 0.417747
0.11428 -0.175605 0.378205
0.00210106 0.0027039 0.420615
0.102378 -0.250106 0.3614
0.0371354 -0.156422 0.359578
0.0935909 -0.125284 0.392612
0.00556115 -0.116622 0.398815
0.0128598 -0.0466338 0.403042
0.0706085 -0.157033 0.368357
0.0645779 0.00824848 0.44513
0.0764808 -0.236634 0.362331
0.116358 -0.162574 0.388045
0.0689349 -0.0362659 0.42328
-0.00624582 -0.0314403 0.42158
0.0781099 0.0075573 0.42063
0.0521074 -0.136345 0.370133
0.00557669 -0.105992 0.398069
0.057949 -0.131335 0.373211
0.0875226 -0.0618399 0.420499
0.00567531 -0.101934 0.398255
0.0730756 -0.0952237 0.397086
-0.0069414 -0.116061 0.420524
0.00580304 -0.0910437 0.399554
0.0558467 -0.00842431 0.420492
0.00378818 -0.129632 0.396673
0.0046382 -0.0918034 0.401426
0.0116688 -0.0812459 0.394294
-0.00694217 -0.111117 0.418933
0.00270895 -0.146308 0.395751
0.0370483 -0.225893 0.370261
0.0958685 -0.0224176 0.444103
0.0580837 0.0093722 0.445438
0.00281222 -0.142176 0.396277
0.000434168 -0.101243 0.408496
0.0471403 -0.0564822 0.404954
0.011319 -0.15661 0.388804
0.0380734 -0.179658 0.34938
0.0824618 -0.106361 0.39428
0.0340412 -0.166539 0.35596
-0.00416007 -0.000436894 0.412925
-0.00367428 -0.0967069 0.415106
-0.00367504 -0.109422 0.417765
0.109498 -0.136952 0.39729
0.0909982 -0.098823 0.400997
0.124849 -0.125569 0.388124
0.0721502 -0.0168973 0.434936
-0.0104054 -0.091279 0.426304
0.0610932 -0.0127675 0.424995
0.0375941 -0.0419054 0.404752
0.0627615 -0.084997 0.397493
0.0506217 0.0068076 0.437565
0.107681 -0.136571 0.395915
-0.0017946 -0.0369218 0.419197
0.0665817 -0.0360846 0.419928
0.00351149 -0.156229 0.398904
0.123287 -0.155688 0.395092
0.00696554 -0.0468433 0.400397
0.018451 -0.166509 0.374866
0.0874059 -0.131375 0.388009
0.110927 -0.0808514 0.433733
0.00300121 -0.0215846 0.415598
-0.00851568 -0.0648348 0.428747
-0.00826767 -0.0562256 0.428665
0.0437027 -0.0917732 0.387213
0.0670246 -0.0111546 0.434441
0.0163712 -0.140946 0.378535
-0.00690905 -0.0167059 0.425295
0.0981186 -0.254372 0.369552
-0.00812936 -0.0520392 0.429894
0.0921858 -0.00654737 0.448735
0.0907488 -0.00772272 0.445626
0.0137652 -0.0228624 0.406604
-0.00125071 -0.136163 0.397956
-0.0158344 -0.00729302 0.446329
0.0308279 -0.0079362 0.416954
0.0118289 -0.0214587 0.409047
0.027082 -0.111374 0.374975
0.0575108 -0.00216184 0.430396
-0.00786164 -0.023846 0.41804
0.0485739 -0.0085082 0.420817
0.0477297 -0.110363 0.378602
0.0682157 -0.139941 0.373801
0.0133358 -0.0313062 0.407304
0.0825278 -0.24499 0.360928
0.039194 -0.183988 0.34839
0.0791835 -0.0914734 0.40202
0.0311971 -0.150661 0.363238
-0.00927698 -0.0412071 0.429279
0.0169074 -0.115928 0.379195
-0.0144494 -0.0110782 0.438036
0.0561399 -0.0512258 0.405878
0.0973863 -0.0509515 0.432894
-0.0133531 -0.0265456 0.439328
0.00279903 -0.0562466 0.410185
0.00904842 -0.207115 0.377994
0.0633106 -0.100764 0.388222
0.0573121 -0.101105 0.387209
0.0322091 -0.222773 0.372599
0.0957723 -0.127558 0.391948
0.0475609 -0.0169013 0.419326
0.0475261 -0.121087 0.373549
0.000330266 -0.206933 0.385873
0.0656279 -0.0672274 0.406563
0.0525306 -0.0714904 0.399123
0.0428977 -0.177572 0.346884
0.0232115 -0.0925803 0.381437
0.0669022 -0.0659798 0.409266
0.0369892 -0.106794 0.375104
0.0323264 -0.174958 0.358202
-0.0126405 -0.0158243 0.435361
-0.00630077 -0.0954665 0.415283
0.00342354 -0.0758062 0.405085
0.107266 -0.24682 0.355345
0.083269 -0.0515237 0.42316
-0.019164 -0.0261418 0.449114
0.0737493 -0.1353 0.377692
0.0106622 -0.151285 0.392261
0.0263959 0.0101775 0.429136
0.0663135 -0.0179071 0.430988
0.0567098 -0.232457 0.369297
0.0427025 -0.00679265 0.420677
0.11385 -0.110979 0.409685
0.0829405 -0.0611716 0.418821
0.0125613 -0.0493881 0.374437
0.0813087 0.00548204 0.468167
0.00568326 -0.0962057 0.399047
0.0919745 -0.241239 0.359298
0.0871289 -0.236336 0.35842
0.0817869 -0.0771127 0.409331
0.000412112 -0.0561155 0.414838
0.0175913 -0.0917183 0.384843
0.0857646 -0.236789 0.362821
0.0913001 -0.24081 0.35602
0.00731827 0.00350125 0.401732
-0.00178613 -0.135388 0.40647
0.0268164 -0.146235 0.368447
0.0617879 -0.126303 0.374972
0.0323614 -0.0608604 0.397846
0.037066 -0.0267676 0.41079
0.00312385 -0.10647 0.401036
0.0131397 -0.0655581 0.373241
0.0271802 -0.0776518 0.386581
0.0474464 -0.162015 0.356278
0.102271 -0.131164 0.393813
0.00618158 -0.0864746 0.400108
0.0770225 -0.121202 0.384435
0.0662086 -0.0712124 0.404872
0.00365397 -0.151331 0.39964
0.0162432 -0.0761911 0.393291
0.013546 -0.156067 0.385521
-0.0211426 -0.0333582 0.449505
0.0218321 0.00690974 0.417708
0.0833831 -0.185778 0.369383
0.0129424 -0.0964271 0.386101
0.11039 -0.126458 0.40107
0.0221981 0.00983976 0.424444
0.106345 -0.128679 0.396776
0.0147007 -0.145706 0.381964
0.0275677 -0.00121061 0.419685
0.00322626 -0.0869591 0.405963
0.052492 -0.000620428 0.428375
0.000304034 0.000494468 0.404836
0.0537168 -0.145511 0.368156
0.086898 -0.0660526 0.418249
0.0110065 -0.0709526 0.399093
0.0374882 -0.0588391 0.396959
0.0165261 0.00299409 0.416346
0.00782828 -0.19298 0.364989
0.0878438 -0.0866564 0.408484
-0.0159064 -0.0676014 0.433712
-0.000946396 -0.0417591 0.416478
0.0381995 -0.0154274 0.417476
0.118621 -0.16249 0.392608
0.0913398 -0.256398 0.375423
0.0772417 -0.116345 0.385453
0.113843 -0.0841505 0.418961
0.0822539 -0.00552083 0.442736
0.00344565 -0.146611 0.399108
0.00904809 -0.0561211 0.401927
0.121406 -0.144478 0.39932
0.0915819 -0.0568844 0.425787
0.121927 -0.17694 0.383963
0.0923657 -0.0666629 0.419461
0.0846833 -0.23222 0.362791
0.0988715 -0.253583 0.370021
0.0613687 0.00476493 0.438457
0.0224595 -0.235232 0.378012
0.0797214 -0.162656 0.365288
0.0186808 -0.140967 0.374817
0.0935711 -0.0913506 0.408375
0.00753392 -0.146602 0.398773
0.0586076 -0.0216167 0.42102
-0.0126205 -0.0418316 0.434188
0.0665678 -0.0222647 0.429659
0.00235298 -0.0668955 0.410011
0.0039397 -0.194125 0.372697
-0.0123989 -0.0369521 0.435339
0.00993579 -0.108675 0.377454
0.0307594 -0.231512 0.364264
0.0375966 -0.0811206 0.389828
0.0936753 -0.0946534 0.40703
0.0620768 -0.0963622 0.38939
0.0252357 -0.234283 0.370742
0.0279965 -0.22434 0.372675
0.0166275 -0.0961743 0.384079
0.0130764 -0.219792 0.374623
0.057431 -0.116042 0.379022
-0.00311694 -0.0858491 0.414875
0.0474992 -0.0913011 0.389178
0.0774167 -0.0758929 0.409315
0.0865341 -0.0264415 0.436059
0.0532649 0.00323019 0.428738
0.067954 -0.0750823 0.404141
0.00771077 -0.16224 0.390418
0.0919821 -0.135576 0.388583
0.0147484 -0.0658438 0.396248
0.095348 -0.182623 0.356515
-0.00210372 -0.111675 0.405419
-0.00852023 -0.0463681 0.429452
0.0178054 -0.11143 0.380603
0.0570007 -0.170618 0.354372
0.00905081 -0.0364735 0.406518
0.0277372 -0.0663814 0.393079
0.0520319 -0.0979322 0.386494
0.0726275 -0.0655794 0.414082
0.0163479 -0.171365 0.379256
0.00836674 -0.116193 0.38041
0.095972 -0.136061 0.389553
-0.00402438 -0.10135 0.413592
0.0773101 -0.0213811 0.433892
0.0424553 -0.140744 0.363257
0.000837509 -0.0260426 0.417512
-0.00601988 -0.0916511 0.411294
0.00374383 -0.155388 0.384647
0.111532 -0.120252 0.405368
0.0424916 -0.016423 0.418157
0.0932872 -0.0102912 0.447491
0.0767691 -0.031817 0.429766
0.0570457 -0.23784 0.36021
0.0626261 -0.0724078 0.401832
0.077463 -0.220618 0.439284
0.0781227 -0.216076 0.439865
0.0375047 -0.161719 0.355775
0.0868145 -0.176984 0.359034
0.0897004 -0.0517839 0.427362
0.0963555 -0.236481 0.357962
0.0173096 -0.0666907 0.394595
0.0525593 -0.0110583 0.424636
0.0616194 -0.0181531 0.424707
0.102312 -0.0498449 0.438196
0.0323222 -0.11633 0.370403
0.0321071 -0.226456 0.374937
0.00338365 -0.160687 0.400143
0.0480114 -0.0505439 0.407269
0.0864755 -0.0758992 0.414461
0.0192794 -9.0152e-07 0.418024
0.0867015 -0.091473 0.405281
0.0512102 -0.0555555 0.407115
0.0222876 -0.0767418 0.389655
-0.0075541 -0.0146127 0.416684
-0.00256033 -0.0913695 0.414159
0.0287924 -0.140781 0.366608
0.0570677 -0.235062 0.367852
0.0278175 -0.222844 0.37043
0.119216 -0.139878 0.396164
0.0122005 -0.00669931 0.414342
0.0543052 0.00851117 0.417357
0.0675889 -0.101619 0.389959
0.097248 -0.0278154 0.440115
0.0571981 -0.12019 0.378381
-0.00308021 -0.0812451 0.415347
0.10602 -0.2383 0.350159
0.0702218 -0.13665 0.374935
0.0162609 -0.123018 0.369089
0.0841295 0.00664976 0.462227
0.0984793 -0.0603462 0.428204
0.00811327 -0.170045 0.388513
0.107273 -0.254957 0.368907
0.0241908 -0.184388 0.364469
0.057758 -0.0861165 0.393734
0.0968661 -0.0619483 0.425261
0.0275643 -0.131271 0.368585
0.0816677 -0.240931 0.361249
0.106514 -0.105972 0.408228
0.0624153 -0.0569738 0.408597
0.0601968 -0.201897 0.374932
0.108139 -0.161025 0.382723
-0.00490248 -0.0479158 0.410122
0.0375618 -0.126434 0.366614
0.0162205 -0.175505 0.378213
0.11734 -0.114324 0.414928
0.0426105 -0.0662436 0.399347
0.0179945 -0.0608328 0.393202
0.108845 -0.250344 0.359509
0.00247065 -0.0616398 0.409893
0.0884274 -0.025515 0.438003
0.0618881 -0.241096 0.367472
-0.0156321 -0.0608929 0.435064
0.110105 -0.0757151 0.432564
0.104109 -0.160431 0.382544
0.026955 -0.136128 0.368307
0.0530737 -0.125554 0.372925
0.00747949 -0.156554 0.394268
0.0126144 -0.0361822 0.405029
0.0184134 -0.171321 0.374409
0.0425239 -0.0511817 0.405088
0.00244719 -0.175997 0.37461
0.00323765 -0.0466301 0.411121
0.0525555 -0.00630096 0.425435
0.0773891 -0.126196 0.383712
0.107812 -0.116749 0.40365
0.100806 -0.240429 0.356922
0.0407038 -0.05268 0.401752
0.0820564 -0.176703 0.363656
0.0824761 -0.236389 0.360894
0.116606 -0.166162 0.384188
0.0774691 -0.100448 0.395084
0.0773898 -0.05643 0.418941
0.0792449 -0.101077 0.397135
0.0290278 -0.11708 0.371262
0.0270285 0.00338706 0.419055
0.0124662 -0.149583 0.378326
0.0374562 -0.0872371 0.385736
0.0979028 -0.126247 0.393781
0.0386102 -0.236472 0.364885
0.0388522 -0.171465 0.350921
-0.01346 -0.0564742 0.423989
0.0873387 -0.0516558 0.425617
0.0622295 -0.0227301 0.425285
0.0385791 -0.0252029 0.412625
-0.00629494 -0.0720968 0.421651
0.0362289 -0.176531 0.350181
0.00768704 -0.151533 0.395059
0.0538119 -0.0408162 0.413007
0.0420664 -0.234987 0.369268
0.081922 -0.242262 0.362798
0.0808788 -0.0625834 0.416479
0.0223637 -0.00664145 0.415633
0.108986 -0.252402 0.368366
0.0216092 -0.0169031 0.410514
0.118677 -0.241356 0.358841
0.0243883 -0.0158566 0.412499
-0.0126286 -0.0214631 0.439591
0.0377361 -0.00210838 0.42257
0.0723689 -0.171842 0.361087
0.0723444 -0.0772775 0.40443
0.067004 -0.111117 0.383271
0.000412597 -0.0967068 0.409973
0.0170306 -0.0360599 0.403677
0.0377621 -0.0960165 0.382113
0.0515235 -0.0416572 0.409578
0.0220432 -0.171579 0.369018
0.0186619 -0.145066 0.375375
0.0406988 -0.0386676 0.406273
0.00157843 -0.081717 0.408877
0.0418276 -0.142829 0.361868
0.0725238 0.00336473 0.443289
0.0710859 -0.0672753 0.410548
0.00596313 -0.126224 0.399414
0.11192 -0.137136 0.397735
0.0168868 -0.0545705 0.397298
0.0530194 -0.140738 0.368368
0.0815879 -0.236264 0.346127
0.0374875 -0.0766559 0.39149
0.0820236 -0.0969234 0.400738
0.102087 -0.0865483 0.414502
0.0926299 -0.131644 0.390089
0.0936185 -0.191138 0.364423
-5.96978e-05 -0.127707 0.407967
0.0471749 -0.166346 0.353907
0.00550887 -0.071004 0.40442
0.0839998 -0.0882693 0.407193
0.100962 -0.0506766 0.434325
0.0110747 -0.141307 0.389563
0.0102646 -0.199717 0.365489
0.0624783 -0.031589 0.419497
0.0124849 -0.175579 0.3873
0.0640475 -0.249563 0.371687
0.0166365 -0.016828 0.408927
-0.000906757 -0.136027 0.409792
0.0287924 -0.146945 0.365598
-0.0151031 -0.0144344 0.431796
0.0317799 -0.174911 0.354039
0.0147657 -0.114364 0.382235
-0.0063568 -0.0416665 0.424831
0.0594621 -0.244307 0.369252
0.0677693 -0.0901355 0.397778
-0.0136436 -0.0469519 0.439719
0.122802 -0.170809 0.384838
0.0571864 -0.0159807 0.42443
0.0440484 -0.047102 0.40744
0.0133897 -0.0828186 0.391556
0.00304521 -0.0913605 0.404581
0.0577556 -0.0816732 0.396285
0.0675304 -0.0707468 0.408434
0.091146 -0.112577 0.39556
-0.00755461 -0.0762131 0.420032
-0.0139424 -0.0368634 0.438948
0.121662 -0.179815 0.379999
0.01057 -0.105941 0.389147
0.0926754 -0.110535 0.398088
0.0824354 -0.0375151 0.42641
0.0616645 -0.146515 0.370216
0.00206053 -0.121338 0.400732
0.117795 -0.113064 0.421176
0.104069 -0.229802 0.358314
0.0320735 -0.141305 0.364856
0.111928 -0.238238 0.358868
0.0827462 -0.0916302 0.403743
0.0563606 -0.245528 0.372673
0.0675046 -0.185792 0.365104
0.0454325 -0.0385437 0.406996
-0.01563 -0.0213913 0.437866
0.0341395 -0.0311628 0.408046
0.0629251 -0.166021 0.364067
0.115606 -0.151158 0.394051
0.017328 -0.156072 0.379301
0.0974917 -0.111527 0.400049
-0.0160001 -0.0674543 0.440487
-0.00114532 -0.0864661 0.411472
0.0620102 -0.13624 0.373539
0.111525 -0.141297 0.395442
0.058796 -0.056873 0.40818
0.00800586 -0.166824 0.385534
0.0116009 -0.207229 0.377812
0.0685829 -0.045223 0.418753
0.0305156 -0.239061 0.373791
0.0113994 -0.1363 0.388011
0.133277 -0.220597 0.352617
0.117766 -0.167066 0.387168
0.0372599 -0.00605487 0.420537
0.0983529 -0.151172 0.384475
0.0680823 -0.104933 0.388083
-0.00777614 -0.071331 0.425296
0.0780606 -0.00679424 0.437918
-0.00241966 -0.116168 0.413063
0.00197221 -0.126395 0.404188
0.0271954 -0.0722318 0.39022
0.0423047 -0.226883 0.370857
0.00788089 -0.0712932 0.400186
0.0441103 -0.0203886 0.41778
0.0921562 -0.0634694 0.421279
0.0721856 -0.236498 0.363608
0.00320385 -0.136276 0.399347
0.103265 -0.135825 0.39422
0.0426734 -0.0219457 0.416297
0.0711021 -0.237117 0.367069
0.0925913 -0.0615712 0.42322
0.0677998 -0.0413961 0.419115
0.0787949 -0.130922 0.383871
0.0885946 -0.180975 0.359934
0.0221482 -0.0354791 0.403351
0.0324744 -0.0563521 0.398504
0.0494293 -0.232092 0.355101
0.0154201 -0.110964 0.383442
-0.00628057 -0.0462261 0.424785
0.0478982 -0.159716 0.357941
0.0517438 -0.185542 0.354339
0.0389645 -0.180353 0.344511
0.0876779 -0.18576 0.363449
0.0417528 -0.0617035 0.400202
